58.7,63.29,8.21,14
63.35,72.57,17.2,14
58.48,71.44,16.05,14
64.62,68.57,17.16,14
60.02,86.46,17.23,14
58.54,83.6,12.47,14
58.6,60.96,8.37,14
80.35,71.41,16.69,14
79.55,81.98,16.96,14
74.85,68.85,17.86,14
85.76,65.77,17.74,14
60.84,68.98,19.12,14
71.79,74.76,17.13,14
82.54,65.61,18.09,14
67.5,69.7,17.13,14
87.91,79.66,16.8,14
87.59,86.02,17.08,14
58.54,71.79,7.71,14
82.84,63.09,16.94,14
77.87,79.98,16.72,14
80.19,63.36,16.96,14
72.61,81.38,16.64,14
74.41,75.46,17.48,14
72.81,72.03,17.34,14
84.67,72.58,17.19,14
69.48,76.55,16.94,14
67.37,73.14,17.28,14
-88.42,46.02,3.26,8
-87.88,33.37,3.28,8
-87.92,41.52,6.52,8
-87.81,40.11,3.25,8
-87.98,41.07,6.66,8
-88.28,42.38,3.27,8
-88.34,40.89,3.27,8
-88.28,34.83,3.28,8
-88.09,35.55,3.28,8
-88.17,34.35,3.27,8
-87.83,31.87,3.24,8
-87.79,39.53,3.27,8
-87.76,31.24,3.23,8
-88.09,33.98,3.3,8
-88.04,45.23,3.27,8
-87.98,39.71,3.26,8
-87.98,38.19,3.27,8
-87.62,36.11,3.27,8
-87.56,34.31,3.29,8
-88.34,39.83,3.27,8
-87.61,38.87,3.26,8
-73.26,45.68,25.29,8
-70.75,45.69,25.3,8
-77.4,45.69,25.28,8
-75.23,45.68,25.27,8
-69.23,45.68,25.29,8
-67.67,45.69,25.32,8
-70.36,45.66,25.29,8
-68.85,45.68,25.28,8
-72.51,45.68,25.28,8
-68.06,45.68,25.27,8
-71.27,45.67,25.29,8
-69.75,45.34,25.28,8
-76.62,45.69,25.31,8
-68.45,45.67,25.28,8
-67.19,45.69,25.28,8
-74.28,45.68,25.3,8
-72.08,45.67,25.28,8
-73.93,44.44,25.29,8
-68.48,44.49,25.29,8
-69.5,44.47,25.29,8
-69.5,44.74,25.28,8
-71.68,45.66,25.29,8
-70.48,43.95,25.29,8
-71.17,45.31,25.28,8
-77.66,44.48,25.29,8
-68.07,43.9,25.28,8
-73.25,44.23,25.28,8
-67.18,44.83,25.29,8
-76.2,43.6,25.29,8
-69.45,43.93,25.29,8
-77.7,44.77,25.29,8
-76.06,44.76,25.29,8
-67.13,43.89,25.29,8
-75.24,43.99,25.28,8
-76.95,44.76,25.28,8
-72.84,44.04,25.31,8
-66.87,43.62,25.32,8
-73.54,43.88,25.28,8
-73.26,41.05,25.33,8
-68.81,35.45,25.28,8
-67.18,34.47,25.27,8
-67.13,41.88,25.29,8
-67.15,33.31,25.29,8
-66.85,33.59,25.28,8
-68.81,35.04,25.29,8
-78.4,37.86,25.25,8
-68.82,37.08,25.29,8
-77.39,39.33,25.3,8
-66.82,31.9,25.29,8
-74.33,34.61,25.28,8
-66.44,33.31,25.31,8
-77.38,38.47,25.29,8
-68.78,31.57,25.29,8
-71.95,39.61,25.28,8
-68.81,32.05,25.28,8
-74.27,34.23,25.29,8
-77.37,40.54,25.28,8
-71.75,39.18,25.29,8
-69.45,37.03,25.29,8
-70.78,34.47,25.28,8
-77.39,39.64,25.27,8
-77.4,41.0,25.33,8
-72.2,37.58,25.29,8
-66.82,34.99,25.29,8
-70.46,32.76,25.28,8
-67.13,31.6,25.28,8
-77.42,40.18,25.32,8
-73.95,36.19,25.29,8
-66.79,41.88,25.28,8
-76.65,37.0,25.29,8
-72.97,42.22,25.29,8
-75.81,36.71,25.29,8
-66.86,42.2,25.29,8
-67.62,35.41,25.3,8
-69.06,36.75,25.29,8
-72.2,37.07,25.29,8
-66.81,39.61,25.28,8
-73.33,34.2,25.29,8
-68.5,37.92,25.29,8
-66.89,34.17,25.3,8
-73.97,34.53,25.29,8
-67.71,31.56,25.28,8
-73.27,34.51,25.28,8
-66.85,39.29,25.28,8
-77.7,40.48,25.3,8
-70.73,38.74,25.28,8
-69.47,40.87,25.29,8
-71.61,35.03,25.28,8
-68.05,35.36,25.28,8
-69.39,36.67,25.28,8
-73.25,43.09,25.29,8
-72.47,31.01,25.27,8
-67.17,31.04,25.28,8
-73.29,31.0,25.3,8
-68.47,31.03,25.32,8
-71.71,31.02,25.29,8
-82.12,44.45,25.27,8
-82.46,44.44,25.28,8
-83.04,45.68,25.28,8
-83.44,45.69,25.28,8
-87.05,44.9,25.3,8
-84.34,44.45,25.27,8
-84.79,43.94,25.27,8
-86.37,45.68,25.29,8
-83.41,44.44,25.28,8
-85.99,45.67,25.28,8
-85.21,45.68,25.26,8
-87.05,44.39,25.29,8
-83.96,45.69,25.29,8
-85.59,45.66,25.27,8
-82.53,45.68,25.29,8
-80.99,45.65,25.27,8
-79.69,45.15,25.29,8
-84.33,45.69,25.28,8
-84.78,44.38,25.31,8
-82.48,44.76,25.29,8
-85.62,44.49,25.29,8
-86.65,44.47,25.29,8
-86.63,44.75,25.28,8
-85.62,44.09,25.29,8
-81.44,45.68,25.29,8
-86.01,43.94,25.28,8
-85.21,43.9,25.28,8
-80.54,43.69,25.31,8
-84.32,44.83,25.28,8
-84.77,34.49,25.3,8
-84.79,35.01,25.31,8
-84.78,35.42,25.29,8
-87.04,34.89,25.29,8
-87.06,35.35,25.27,8
-87.04,38.04,25.29,8
-87.03,37.54,25.29,8
-87.03,42.66,25.29,8
-84.77,43.1,25.26,8
-83.41,36.36,25.33,8
-87.04,40.89,25.29,8
-85.96,35.45,25.29,8
-83.16,33.27,25.31,8
-87.03,31.96,25.29,8
-84.29,33.3,25.27,8
-85.97,37.58,25.27,8
-82.16,35.93,25.28,8
-85.97,35.04,25.29,8
-80.31,43.06,25.28,8
-87.06,34.08,25.28,8
-85.97,37.08,25.29,8
-80.67,37.86,25.28,8
-67.17,31.94,25.28,8
-83.09,36.67,25.28,8
-81.43,37.08,25.3,8
-82.13,33.3,25.29,8
-84.35,36.35,25.31,8
-87.07,40.63,25.32,8
-82.5,34.5,25.27,8
-85.14,32.81,25.29,8
-83.97,31.89,25.28,8
-80.25,37.92,25.3,8
-83.44,37.06,25.29,8
-87.04,43.13,25.29,8
-82.46,36.21,25.28,8
-85.92,31.58,25.29,8
-83.13,38.49,25.27,8
-84.81,36.2,25.31,8
-85.96,32.05,25.28,8
-83.57,33.28,25.28,8
-86.59,37.02,25.28,8
-82.1,40.89,25.29,8
-83.07,31.06,25.28,8
-81.44,31.0,25.27,8
-86.48,31.03,25.31,8
-88.14,36.27,3.27,8
-88.14,34.35,3.27,8
-88.17,39.53,3.27,8
-88.23,34.87,3.28,8
-88.25,42.38,3.27,8
-74.57,44.19,25.29,8
-70.15,45.04,25.29,8
-73.57,45.05,25.29,8
-78.24,43.31,25.3,8
-72.69,44.24,25.3,8
-77.15,44.26,25.29,8
-66.71,34.79,25.29,8
-68.99,37.28,25.2,8
-66.55,33.17,25.25,8
-67.42,35.56,25.29,8
-68.26,35.46,25.29,8
-72.68,31.13,25.31,8
-83.71,44.7,25.29,8
-80.98,44.26,25.44,8
-85.35,44.07,25.28,8
-86.29,44.23,25.28,8
-79.04,45.05,25.29,8
-80.87,43.4,25.28,8
-80.83,44.99,25.29,8
-87.02,34.76,25.3,8
-82.81,36.44,25.34,8
-82.68,34.69,25.29,8
-80.85,37.98,25.3,8
-84.62,36.48,25.32,8
-81.76,34.72,25.28,8
-82.81,31.29,25.28,8
-84.55,33.07,25.28,8
-81.85,35.61,25.28,8
-86.14,37.28,25.21,8
-85.37,31.1,25.28,8
-84.53,31.23,25.28,8
-86.25,31.21,25.29,8
-88.29,33.96,3.28,8
-88.33,33.25,3.26,8
-88.36,38.63,3.27,8
-74.45,45.34,25.28,8
-75.44,43.55,26.8,8
-84.03,45.18,25.33,8
-82.29,35.46,26.08,8
-69.93,45.44,25.28,8
-73.45,45.54,25.29,8
-69.66,44.36,25.29,8
-70.65,45.46,25.29,8
-75.98,45.48,25.28,8
-70.69,44.63,25.29,8
-70.6,43.37,25.29,8
-75.13,45.49,25.29,8
-67.84,44.61,25.29,8
-73.13,45.45,25.3,8
-77.48,44.56,25.29,8
-69.65,45.17,25.29,8
-67.03,44.67,25.29,8
-71.41,45.22,25.29,8
-78.55,45.48,25.28,8
-74.11,44.55,25.29,8
-68.58,44.25,25.28,8
-69.68,44.65,25.29,8
-70.55,45.83,25.27,8
-76.0,44.26,25.29,8
-74.16,43.75,25.29,8
-71.37,45.39,25.28,8
-75.04,44.57,25.29,8
-76.06,43.78,25.31,8
-70.65,43.86,25.29,8
-75.57,44.61,25.28,8
-78.61,43.8,25.29,8
-69.22,36.92,25.29,8
-66.71,39.44,25.29,8
-69.66,42.9,25.29,8
-70.41,32.52,25.29,8
-67.79,37.31,25.28,8
-78.63,42.93,25.29,8
-67.32,33.49,25.29,8
-69.68,37.81,25.29,8
-73.09,42.9,25.29,8
-69.68,35.18,25.29,8
-73.19,41.21,25.29,8
-74.54,36.92,25.29,8
-76.77,37.77,25.29,8
-72.08,35.14,25.29,8
-71.05,34.31,25.28,8
-67.76,35.96,25.29,8
-67.03,32.57,25.28,8
-67.77,37.72,25.28,8
-72.01,37.71,25.29,8
-69.15,41.09,25.29,8
-76.85,42.05,25.29,8
-68.66,39.45,25.29,8
-70.57,41.15,25.29,8
-78.65,37.68,25.31,8
-66.99,35.16,25.28,8
-69.67,34.28,25.29,8
-72.31,41.18,25.29,8
-67.83,35.22,25.28,8
-68.74,36.87,25.29,8
-77.58,39.5,25.29,8
-72.59,35.23,25.29,8
-75.08,36.87,25.29,8
-68.68,37.75,25.29,8
-70.56,38.65,25.29,8
-75.94,41.22,25.28,8
-74.4,35.18,25.29,8
-66.92,41.14,25.29,8
-72.31,31.21,25.29,8
-69.57,31.22,25.29,8
-77.78,36.5,33.81,8
-72.52,30.85,25.32,8
-73.08,30.81,25.28,8
-69.62,30.85,25.29,8
-82.29,44.67,25.29,8
-84.17,44.67,25.29,8
-80.43,43.84,25.28,8
-86.79,45.16,25.29,8
-84.98,44.61,25.29,8
-86.82,44.65,25.29,8
-80.72,45.43,25.31,8
-85.72,44.26,25.29,8
-86.8,42.9,25.29,8
-83.85,39.44,25.29,8
-86.82,35.19,25.29,8
-86.4,33.47,25.29,8
-65.17,31.75,25.29,8
-86.82,37.81,25.29,8
-82.3,35.16,25.29,8
-86.82,34.28,25.29,8
-83.24,39.49,25.29,8
-84.93,37.31,25.29,8
-77.56,31.77,25.28,8
-81.3,36.0,25.29,8
-85.0,35.23,25.28,8
-84.13,39.47,25.28,8
-84.17,32.57,25.29,8
-83.37,33.39,25.29,8
-79.48,38.56,25.28,8
-83.21,37.71,25.28,8
-84.09,33.36,25.3,8
-86.3,41.09,25.29,8
-82.29,32.6,25.28,8
-84.91,37.72,25.29,8
-79.55,41.18,25.29,8
-86.81,33.46,25.29,8
-85.83,42.02,25.29,8
-85.88,36.87,25.29,8
-85.76,34.29,25.29,8
-80.43,43.21,25.28,8
-85.02,31.66,25.29,8
-79.54,31.19,25.28,8
-83.3,30.96,25.3,8
-85.76,31.19,25.28,8
-68.61,38.63,25.29,8
-70.56,31.76,25.29,8
-81.47,34.75,34.13,8
-79.59,45.41,25.29,8
-84.48,44.21,25.44,8
-82.75,44.09,25.23,8
-83.42,44.21,25.4,8
-85.84,43.73,25.29,8
-83.21,36.89,25.29,8
-82.28,41.12,25.29,8
-84.45,36.09,25.41,8
-85.75,38.63,25.29,8
-85.14,36.14,25.28,8
-79.4,46.21,25.33,8
-59.5,43.62,25.31,8
-59.52,43.91,25.28,8
-61.28,44.46,25.27,8
-60.24,38.47,25.29,8
-58.7,31.84,25.27,8
-58.7,32.93,25.37,8
-59.51,37.01,25.3,8
-60.56,40.48,25.28,8
-58.66,33.62,25.3,8
-59.46,35.87,25.29,8
-59.51,43.04,25.28,8
-60.28,40.18,25.28,8
-59.77,39.64,25.28,8
-59.48,31.61,25.3,8
-59.45,34.99,25.28,8
-59.83,42.74,25.3,8
-60.32,41.93,25.29,8
-64.98,44.45,25.27,8
-66.3,45.69,25.29,8
-63.99,44.43,25.27,8
-63.43,44.44,25.29,8
-63.07,44.44,25.29,8
-66.82,45.68,25.27,8
-69.82,44.45,25.28,8
-65.39,45.67,25.28,8
-70.73,44.81,25.29,8
-66.27,44.77,25.3,8
-73.19,43.89,25.29,8
-63.81,44.43,25.33,8
-73.92,43.91,25.28,8
-67.18,44.51,25.3,8
-65.49,42.71,25.28,8
-68.82,37.59,25.29,8
-62.23,37.0,25.29,8
-71.96,39.2,25.29,8
-65.96,43.07,25.3,8
-74.24,42.8,25.29,8
-72.56,37.64,25.29,8
-83.08,44.4,25.29,8
-86.56,45.35,25.29,8
-84.8,35.43,25.32,8
-74.85,31.88,25.28,8
-84.81,42.26,25.4,8
-84.81,43.09,25.3,8
-82.14,41.32,25.3,8
-75.19,31.84,25.28,8
-75.76,31.08,25.29,8
-88.65,41.32,3.28,8
-88.66,38.7,3.26,8
-87.35,39.33,25.29,8
-87.35,32.77,25.28,8
-60.01,44.26,25.29,8
-61.06,43.33,25.26,8
-59.04,42.49,25.29,8
-59.15,36.45,25.28,8
-60.01,36.41,25.29,8
-60.98,42.49,25.28,8
-60.91,40.77,25.29,8
-60.01,32.18,25.28,8
-65.72,43.31,25.3,8
-65.71,44.15,25.3,8
-61.77,43.44,25.28,8
-61.9,45.02,25.28,8
-67.42,44.19,25.29,8
-65.71,42.56,25.38,8
-65.68,38.12,25.26,8
-67.41,35.56,25.29,8
-67.43,34.62,25.29,8
-87.22,40.76,25.29,8
-83.6,36.51,25.36,8
-87.18,35.58,25.27,8
-83.69,33.14,25.26,8
-87.17,42.46,25.29,8
-76.35,36.36,25.28,8
-63.29,45.1,25.36,8
-64.42,45.11,25.26,8
-67.23,45.35,25.28,8
-71.96,45.01,25.2,8
-58.79,46.08,26.17,8
-58.91,43.77,25.29,8
-61.47,43.8,25.28,8
-58.89,36.07,25.29,8
-59.54,36.35,25.29,8
-61.48,42.93,25.29,8
-59.63,37.77,25.29,8
-60.41,35.2,25.29,8
-61.45,38.61,25.29,8
-60.45,33.46,25.29,8
-60.41,31.77,25.28,8
-59.7,40.38,25.28,8
-59.71,42.05,25.28,8
-59.9,33.47,25.29,8
-59.68,32.88,25.28,8
-59.68,42.82,25.29,8
-59.7,38.62,25.29,8
-59.7,34.35,25.29,8
-60.43,36.85,25.29,8
-60.42,39.5,25.29,8
-61.49,37.68,25.29,8
-59.63,41.18,25.29,8
-60.43,38.56,25.29,8
-59.58,36.79,25.29,8
-61.41,40.31,25.29,8
-67.88,45.53,25.29,8
-65.14,44.67,25.29,8
-64.16,37.38,25.29,8
-64.15,37.72,25.29,8
-72.41,39.89,25.29,8
-63.23,39.81,25.29,8
-62.4,41.18,25.29,8
-66.1,39.49,25.29,8
-74.11,42.95,25.29,8
-72.25,39.28,25.28,8
-61.94,40.39,25.29,8
-62.34,38.56,25.28,8
-66.17,42.09,25.29,8
-71.53,39.17,25.3,8
-70.66,33.39,25.29,8
-72.3,38.57,25.28,8
-64.08,41.1,25.29,8
-67.88,31.66,25.29,8
-63.43,43.48,26.02,8
-65.09,39.52,25.29,8
-70.58,30.84,25.32,8
-87.08,45.44,25.28,8
-86.79,45.16,25.29,8
-80.62,46.74,26.08,8
-84.91,35.96,25.29,8
-76.69,36.35,25.29,8
-76.02,36.07,25.29,8
-81.2,42.9,25.28,8
-85.99,31.8,25.28,8
-86.37,42.95,25.28,8
-86.82,37.81,25.29,8
-86.81,34.28,25.29,8
-79.08,40.39,25.29,8
-85.82,37.75,25.29,8
-79.24,34.64,34.09,8
-77.81,36.13,33.92,8
-78.82,34.63,33.92,8
-86.72,31.22,25.29,8
-60.52,42.96,25.29,8
-62.39,44.25,25.5,8
-62.42,45.46,25.33,8
-66.16,42.89,25.29,8
-65.14,41.12,25.29,8
-66.09,38.63,25.3,8
-74.03,32.69,25.29,8
-69.76,40.37,25.29,8
-83.23,38.63,25.3,8
-77.66,42.96,25.29,8
-77.64,46.19,25.49,8
-84.19,42.67,25.95,8
-62.0,46.58,25.5,8
-59.15,31.21,25.33,8
-87.29,40.74,25.29,8
-87.21,31.2,25.31,8
-81.39,43.06,25.29,8
-59.06,33.91,25.29,8
-87.46,43.4,25.28,8
-87.46,39.94,25.29,8
-60.59,36.16,25.29,8
-60.01,31.03,25.21,8
-76.17,31.01,25.29,8
-59.11,39.94,25.29,8
-78.44,44.47,25.29,8
-85.94,40.51,25.29,8
-87.29,41.61,25.29,8
-61.31,37.03,25.29,8
-59.11,38.19,25.29,8
-87.47,44.76,25.29,8
-68.0,32.81,25.29,8
-61.97,37.31,25.29,8
-66.51,38.13,25.27,8
-59.14,33.03,25.3,8
-59.11,35.58,25.28,8
-59.12,43.28,25.29,8
-59.14,37.27,25.29,8
-85.38,35.48,25.29,8
-84.5,37.33,25.29,8
-86.62,40.87,25.29,8
-65.97,43.89,25.29,8
-83.41,44.76,25.29,8
-62.25,34.16,25.28,8
-82.48,41.02,25.29,8
-72.86,38.48,25.28,8
-72.21,39.85,25.29,8
-85.89,32.48,25.29,8
-83.02,35.0,25.29,8
-81.22,41.1,25.29,8
-61.46,35.14,25.29,8
-62.46,33.54,25.29,8
-84.07,41.13,25.29,8
-61.4,31.57,25.28,8
-72.79,38.69,25.29,8
-77.6,33.46,25.29,8
-61.42,32.62,25.29,8
-60.42,45.56,25.28,8
-84.21,37.79,25.29,8
-61.47,33.48,25.28,8
-85.02,41.48,25.28,8
-77.55,35.2,25.29,8
-85.91,35.24,25.29,8
-82.36,36.0,25.29,8
-64.11,44.6,25.3,8
-84.96,33.45,25.3,8
-73.1,40.36,25.29,8
-71.44,34.3,25.29,8
-66.95,42.0,25.28,8
-72.94,39.37,25.28,8
-76.82,32.88,25.28,8
-85.71,32.54,25.29,8
-76.78,31.16,25.28,8
-70.54,39.25,25.29,8
-77.05,33.47,25.29,8
-85.8,33.76,25.28,8
-59.64,31.17,25.3,8
-73.06,39.21,25.29,8
-58.08,46.52,12.84,8
-87.23,39.02,25.29,8
-87.29,33.86,25.28,8
-58.95,43.99,25.29,8
-60.54,37.59,25.29,8
-59.17,43.29,25.29,8
-58.94,33.66,25.28,8
-87.24,37.34,25.29,8
-87.22,42.46,25.3,8
-59.17,42.49,25.29,8
-61.98,33.86,25.29,8
-63.66,41.7,25.54,8
-81.4,43.08,25.28,8
-74.85,31.5,25.28,8
-62.45,37.73,25.29,8
-81.53,42.28,25.54,8
-63.23,36.92,25.29,8
-82.24,39.52,25.29,8
-73.12,44.57,25.29,8
-62.33,31.75,25.29,8
-62.42,32.61,25.28,8
-62.4,35.16,25.29,8
-61.41,45.48,25.28,8
-62.62,34.08,25.3,8
-86.89,40.36,25.31,8
-72.09,39.5,25.29,8
-70.53,40.69,25.3,8
-72.45,37.46,25.28,8
-58.16,34.59,3.27,8
-59.32,33.9,25.29,8
-59.25,34.66,25.32,8
-66.23,38.72,25.28,8
-61.0,32.19,25.29,8
-59.29,43.28,25.29,8
-62.22,44.15,25.63,8
-61.18,40.35,25.28,8
-59.62,37.77,25.29,8
-64.05,31.76,25.28,8
-71.56,39.27,25.28,8
-63.24,36.92,25.29,8
-60.45,36.46,25.29,8
-63.23,36.09,25.29,8
-63.32,37.76,25.35,8
-88.58,41.89,3.26,8
-88.2,36.11,3.24,8
-87.54,44.59,3.26,8
-87.55,35.43,3.28,8
-73.25,45.65,25.28,8
-72.13,46.06,25.29,8
-73.25,45.29,25.29,8
-72.91,46.04,25.31,8
-69.79,42.74,25.28,8
-72.87,37.97,25.31,8
-70.78,32.41,25.27,8
-68.78,30.98,25.27,8
-73.79,32.83,25.26,8
-73.87,32.44,25.26,8
-84.79,35.76,25.34,8
-84.76,43.58,25.28,8
-86.9,45.34,25.29,8
-79.35,45.34,25.31,8
-81.45,35.87,25.29,8
-84.81,46.09,25.38,8
-84.29,33.3,25.28,8
-88.13,42.88,3.28,8
-88.16,43.31,3.26,8
-70.98,45.9,25.28,8
-68.23,45.92,25.28,8
-77.2,45.91,25.29,8
-75.45,45.91,25.28,8
-68.23,31.05,25.29,8
-69.1,31.17,25.29,8
-68.22,32.13,25.28,8
-67.43,32.21,25.29,8
-79.06,45.92,25.38,8
-79.96,45.92,25.37,8
-80.85,45.89,25.29,8
-83.57,45.94,25.3,8
-82.79,45.89,25.29,8
-78.93,39.05,25.67,8
-69.93,45.45,25.29,8
-73.45,45.55,25.29,8
-72.37,42.09,25.29,8
-70.65,45.47,25.29,8
-67.88,45.53,25.28,8
-75.98,45.48,25.29,8
-67.07,37.79,25.29,8
-76.84,38.62,25.29,8
-78.56,32.62,25.29,8
-67.94,32.61,25.28,8
-69.68,33.46,25.29,8
-81.3,37.38,25.29,8
-79.59,37.73,25.29,8
-79.15,45.48,25.28,8
-85.02,45.53,25.28,8
-80.37,39.81,25.28,8
-79.59,42.88,25.28,8
-80.37,45.52,25.29,8
-64.05,45.42,25.29,8
-81.24,30.89,25.29,8
-84.46,33.49,25.29,8
-80.43,32.7,25.29,8
-88.4,34.45,3.28,8
-66.41,45.93,25.27,8
-58.97,40.82,25.29,8
-63.7,31.04,25.29,8
-62.13,31.0,25.29,8
-87.21,44.24,25.28,8
-64.64,41.69,25.29,8
-60.55,37.89,25.28,8
-60.94,45.91,25.4,8
-62.8,45.92,25.36,8
-60.06,45.94,25.39,8
-64.66,44.83,25.58,8
-63.73,45.91,25.39,8
-59.52,39.87,25.29,8
-59.04,45.04,25.3,8
-59.03,44.21,25.28,8
-87.21,45.0,25.29,8
-61.91,45.92,25.4,8
-87.08,45.45,25.29,8
-58.51,41.97,25.29,8
-58.61,37.36,25.61,8
-84.1,42.48,26.01,8
-84.57,36.19,25.43,8
-62.01,45.48,25.28,8
-67.04,31.81,25.29,8
-60.42,45.57,25.29,8
-68.68,42.03,25.29,8
-65.14,32.6,25.29,8
-64.14,32.58,25.28,8
-63.23,45.52,25.28,8
-59.66,31.79,25.28,8
-66.23,33.39,25.28,8
-68.56,32.54,25.29,8
-59.7,45.54,25.29,8
-75.47,31.18,25.28,8
-59.11,42.49,25.28,8
-84.86,43.89,25.32,8
-58.94,41.57,25.25,8
-60.95,31.18,25.29,8
-67.4,45.94,25.39,8
-59.81,45.37,25.3,8
-81.38,43.62,25.27,8
-62.87,44.89,25.43,8
-83.67,41.74,25.41,8
-85.19,40.92,25.28,8
-87.19,45.91,25.43,8
-73.89,36.63,25.28,8
-82.8,40.79,25.28,8
-78.32,40.35,25.28,8
-77.57,45.57,25.29,8
-76.84,34.36,25.3,8
-72.57,39.18,25.28,8
-72.4,36.95,25.29,8
-58.94,45.3,25.27,8
-85.38,45.97,25.36,8
-81.52,44.19,25.58,8
-83.26,45.64,25.29,8
-58.14,45.9,3.28,8
-66.86,46.21,25.29,8
-74.87,46.18,25.32,8
-68.79,40.5,25.3,8
-84.28,41.88,25.3,8
-83.43,46.22,25.28,8
-83.12,45.34,25.28,8
-69.16,45.99,25.28,8
-77.18,46.0,25.28,8
-70.16,44.21,25.28,8
-73.55,45.02,25.3,8
-70.98,31.21,25.29,8
-74.57,31.19,25.29,8
-80.85,45.96,25.28,8
-83.44,43.29,26.02,8
-79.03,31.21,25.28,8
-83.8,33.79,25.4,8
-82.8,33.91,25.41,8
-80.83,31.21,25.29,8
-74.11,46.27,25.29,8
-73.11,46.13,25.29,8
-75.12,45.5,25.29,8
-71.54,41.95,25.29,8
-70.93,37.85,25.47,8
-78.61,33.49,25.28,8
-74.92,32.56,25.28,8
-80.39,34.31,25.28,8
-72.51,39.32,25.3,8
-79.77,34.08,25.28,8
-65.67,45.95,25.28,8
-64.99,33.3,25.26,8
-82.07,31.07,25.26,8
-72.49,35.86,25.27,8
-78.08,31.19,25.26,8
-63.7,44.85,25.44,8
-75.95,38.82,25.29,8
-83.37,33.39,25.28,8
-64.1,33.53,25.29,8
-81.24,33.52,25.28,8
-65.21,34.4,25.28,8
-62.63,34.07,25.31,8
-59.11,31.26,25.31,8
-85.58,41.26,25.31,8
-75.97,42.0,25.28,8
-84.14,35.95,26.01,8
-79.47,46.28,25.28,8
-85.0,40.29,25.28,8
-84.99,39.47,25.31,8
-66.13,33.46,25.31,8
-63.24,34.31,25.3,8
-61.92,30.14,3.24,8
-62.28,42.26,25.59,8
-87.91,30.64,7.22,8
-84.75,46.16,25.28,8
-87.58,30.5,7.23,8
-71.0,45.99,25.28,8
-76.4,45.98,25.3,8
-77.19,45.99,25.29,8
-83.72,45.0,25.29,8
-78.07,46.0,25.28,8
-82.25,41.94,25.29,8
-82.58,46.32,25.32,8
-80.36,42.12,25.28,8
-66.51,30.27,24.37,8
-63.32,30.34,24.92,8
-61.41,31.58,25.28,8
-71.51,42.9,25.31,8
-60.41,31.78,25.28,8
-62.33,31.75,25.29,8
-66.76,30.36,15.84,8
-66.36,30.17,19.06,8
-64.78,30.11,3.28,8
-68.19,30.17,3.24,8
-63.82,30.24,3.23,8
-69.26,33.47,25.29,8
-65.61,46.31,25.34,8
-69.78,30.22,3.12,8
-60.05,30.41,12.51,8
-61.42,30.65,13.78,8
-62.42,30.3,17.4,8
-66.33,30.28,21.95,8
-63.68,29.96,3.27,8
-66.51,30.27,24.51,8
-64.82,30.42,13.47,8
-62.37,30.28,18.94,8
-63.62,30.41,6.08,8
-61.83,30.43,10.06,8
-62.73,30.26,20.84,8
-59.18,30.39,22.89,8
-62.62,30.24,3.25,8
-62.38,30.29,18.29,8
-61.06,30.37,4.8,8
-63.96,30.3,22.35,8
-70.48,30.39,16.39,8
-59.72,30.43,20.75,8
-63.62,30.45,20.38,8
-66.59,30.4,18.56,8
-66.23,30.15,20.63,8
-66.88,30.3,3.26,8
-71.12,30.43,17.4,8
-69.27,30.42,19.08,8
-63.6,30.26,17.35,8
-68.26,30.41,4.89,8
-65.45,31.03,21.6,8
-65.68,30.24,21.6,8
-71.84,30.57,21.36,8
-87.65,18.96,3.26,9
-87.43,11.56,3.27,9
-87.44,15.55,3.25,9
-86.24,15.24,3.3,9
-87.29,20.07,3.26,9
-87.4,19.43,3.27,9
-87.43,15.53,3.22,9
-75.64,25.62,32.21,9
-84.89,25.63,32.22,9
-84.9,25.61,24.11,9
-82.37,25.78,23.84,9
-87.29,20.07,3.27,9
-87.71,24.24,3.27,9
-87.45,18.48,3.4,9
-87.39,14.68,3.39,9
-87.52,11.58,3.28,9
-87.71,14.15,3.29,9
-82.36,25.73,31.87,9
-87.35,12.07,3.27,9
-87.3,12.25,3.25,9
-82.42,23.57,45.24,9
-86.97,22.36,45.24,9
-82.8,23.31,45.24,9
-82.34,22.51,47.64,9
-81.99,23.08,47.64,9
-86.98,21.23,45.25,9
-86.23,25.01,45.24,9
-81.99,15.48,47.64,9
-84.68,11.21,45.25,9
-86.97,14.02,45.24,9
-86.97,12.96,45.24,9
-83.76,24.92,45.24,9
-86.82,15.23,45.24,9
-79.83,25.57,21.98,9
-81.79,20.25,47.63,9
-79.45,19.85,47.64,9
-80.07,19.46,47.64,9
-80.05,13.75,47.64,9
-82.2,16.62,47.65,9
-82.53,15.82,47.74,9
-85.67,11.4,45.24,9
-82.2,21.62,47.64,9
-82.36,16.87,47.66,9
-82.83,19.65,45.24,9
-82.83,21.62,45.24,9
-79.19,23.05,47.64,9
-74.43,11.21,45.25,9
-82.36,17.6,47.64,9
-77.85,23.45,45.39,9
-87.71,24.23,3.27,9
-77.58,18.69,45.24,9
-78.16,16.45,47.64,9
-87.37,13.0,45.24,9
-77.45,11.57,45.24,9
-87.37,19.39,45.24,9
-77.68,20.81,45.25,9
-73.48,16.85,45.24,9
-73.51,22.47,45.24,9
-78.18,16.44,47.64,9
-85.41,25.43,45.24,9
-79.56,23.13,47.64,9
-78.03,11.19,45.24,9
-79.7,25.34,45.25,9
-79.2,23.04,47.64,9
-80.34,22.99,47.64,9
-75.72,11.19,45.24,9
-73.15,25.41,45.25,9
-85.52,22.44,45.28,9
-73.31,11.16,3.64,9
-85.42,25.42,45.24,9
-80.3,24.63,45.24,9
-79.33,13.55,47.64,9
-80.26,13.57,47.64,9
-81.4,11.52,45.23,9
-79.71,24.7,45.24,9
-77.94,12.95,45.27,9
-79.65,11.56,45.24,9
-80.92,12.91,45.24,9
-82.02,12.88,45.25,9
-80.45,12.19,45.22,9
-78.66,12.75,45.35,9
-81.95,11.55,45.24,9
-77.59,13.5,45.18,9
-82.02,11.91,45.24,9
-81.02,11.92,45.24,9
-83.09,11.91,45.25,9
-75.38,10.83,28.85,9
-79.73,11.98,45.23,9
-78.53,11.97,45.25,9
-80.27,11.98,45.24,9
-81.46,12.96,45.24,9
-80.91,12.91,45.24,9
-85.05,13.88,45.57,9
-85.46,11.98,45.25,9
-79.65,12.83,45.24,9
-84.12,10.84,33.92,9
-79.82,11.15,25.17,9
-78.21,11.11,8.84,9
-78.17,11.16,11.41,9
-74.15,10.93,3.34,9
-78.21,11.15,38.69,9
-80.36,11.03,41.07,9
-78.17,11.22,35.96,9
-78.7,12.41,45.37,9
-86.88,10.94,3.49,9
-78.17,10.8,42.79,9
-87.15,11.1,3.77,9
-75.39,10.79,7.29,9
-76.85,12.09,45.24,9
-86.32,12.59,45.24,9
-76.27,11.91,45.25,9
-86.63,11.95,45.23,9
-80.69,10.97,24.22,9
-85.09,14.16,46.2,9
-78.17,10.86,31.9,9
-76.65,12.51,45.24,9
-74.94,13.84,45.73,9
-85.22,13.72,45.24,9
-78.79,10.9,7.94,9
-77.75,10.8,7.78,9
-31.77,40.29,15.09,11
-33.55,41.71,15.09,11
-33.72,37.89,15.12,11
-33.94,32.94,15.11,11
-33.1,28.26,15.09,11
-34.48,32.21,15.11,11
-35.26,42.87,15.94,11
-33.17,31.91,16.31,11
-33.18,30.75,16.31,11
-32.2,39.63,15.09,11
-33.41,42.13,15.09,11
-33.44,41.26,15.1,11
-28.02,43.39,3.25,11
-34.03,41.14,15.09,11
-34.64,43.26,15.87,11
-34.63,39.41,15.08,11
-35.28,34.67,3.28,11
-35.64,37.31,3.27,11
-35.64,36.31,3.26,11
-34.65,35.24,15.09,11
-33.57,28.69,15.09,11
-34.58,35.86,15.09,11
-34.63,37.28,15.09,11
-34.63,30.91,15.1,11
-34.36,29.84,15.09,11
-34.37,34.59,15.09,11
-33.36,32.71,15.1,11
-34.57,31.35,15.09,11
-33.01,27.61,15.08,11
-32.6,42.02,15.07,11
-32.93,38.47,15.09,11
-34.5,37.78,15.11,11
-34.93,27.43,16.02,11
-34.51,33.86,15.1,11
-35.43,29.63,3.34,11
-33.75,35.55,15.1,11
-34.4,36.74,15.13,11
-34.02,32.44,15.12,11
-15.33,32.54,16.32,11
-18.81,30.86,15.14,11
-21.39,32.66,15.34,11
-21.22,32.91,15.38,11
-31.05,38.08,17.13,11
-16.33,35.98,15.1,11
-29.49,39.46,17.44,11
-15.05,30.23,15.09,11
-19.36,40.96,15.09,11
-25.22,34.68,15.1,11
-16.81,34.15,15.09,11
-14.88,36.82,15.09,11
-22.77,34.56,15.1,11
-26.32,28.61,15.1,11
-16.64,41.64,15.09,11
-20.59,27.99,15.11,11
-29.49,33.1,15.09,11
-15.99,31.98,15.09,11
-23.94,34.2,15.07,11
-26.71,41.22,15.1,11
-13.38,37.49,15.1,11
-32.61,34.18,15.1,11
-13.75,41.35,15.09,11
-30.19,27.36,15.11,11
-23.14,29.38,15.09,11
-16.17,37.32,15.09,11
-17.05,40.56,15.08,11
-26.48,30.52,15.4,11
-26.6,38.65,16.01,11
-27.29,31.54,15.12,11
-26.22,34.69,15.09,11
-29.0,41.26,15.05,11
-15.76,30.36,15.09,11
-16.43,30.52,15.11,11
-27.19,38.62,15.08,11
-27.06,33.36,15.08,11
-31.0,32.2,16.33,11
-33.77,34.85,15.1,11
-24.51,37.39,15.71,11
-22.05,41.39,15.08,11
-20.02,43.35,3.26,11
-16.74,28.14,15.1,11
-25.28,38.76,16.19,11
-30.53,43.04,16.11,11
-22.43,34.06,15.09,11
-19.83,41.54,15.08,11
-23.78,33.27,15.09,11
-30.81,28.9,15.05,11
-15.35,29.5,15.1,11
-16.45,40.45,15.1,11
-30.48,33.02,15.09,11
-15.87,31.42,15.1,11
-27.29,30.71,15.12,11
-21.42,38.73,16.07,11
-24.1,40.11,15.09,11
-19.57,33.45,15.08,11
-25.95,33.2,15.09,11
-25.55,34.91,15.1,11
-21.38,39.33,15.31,11
-14.03,36.17,15.1,11
-25.45,39.39,15.28,11
-16.34,31.85,15.07,11
-25.22,33.21,15.07,11
-14.89,29.67,15.08,11
-29.55,36.78,17.63,11
-28.01,40.77,15.09,11
-12.94,29.23,15.09,11
-26.91,33.54,15.09,11
-17.79,38.61,15.29,11
-31.13,43.27,15.71,11
-32.8,38.68,15.09,11
-17.74,40.91,15.09,11
-18.76,28.63,15.09,11
-31.65,41.28,15.08,11
-14.63,42.12,15.08,11
-34.8,32.22,15.09,11
-25.37,39.76,15.14,11
-20.9,27.58,15.1,11
-16.55,27.4,15.09,11
-20.03,43.65,11.03,11
-17.36,30.28,15.1,11
-23.5,42.11,15.08,11
-20.25,29.27,15.08,11
-17.92,42.1,15.11,11
-27.79,29.32,15.08,11
-30.54,40.95,15.1,11
-28.29,40.88,15.09,11
-20.71,41.17,15.09,11
-34.81,39.85,15.09,11
-16.55,36.63,15.09,11
-16.02,40.95,15.09,11
-31.77,28.93,15.11,11
-14.12,29.67,15.09,11
-23.85,42.14,15.08,11
-22.0,28.74,15.05,11
-27.33,34.3,15.08,11
-21.08,43.27,15.92,11
-34.82,34.97,15.09,11
-27.59,42.11,15.07,11
-24.09,41.25,15.09,11
-13.66,31.02,15.11,11
-34.47,28.89,15.09,11
-19.21,27.22,15.66,11
-15.53,41.97,15.1,11
-34.84,30.62,15.11,11
-16.22,29.86,15.09,11
-16.95,35.59,15.09,11
-12.91,41.1,15.1,11
-34.71,35.83,15.1,11
-28.52,42.01,15.09,11
-34.58,33.81,15.09,11
-18.04,43.26,15.73,11
-21.24,43.52,14.5,11
-34.62,37.27,15.09,11
-19.06,27.97,15.25,11
-17.33,32.44,15.11,11
-32.54,39.83,15.08,11
-17.18,38.54,15.09,11
-28.97,40.6,15.09,11
-14.29,35.12,15.15,11
-13.22,35.55,15.07,11
-19.5,33.04,15.09,11
-18.04,27.24,15.8,11
-20.19,32.01,15.1,11
-17.36,41.43,15.09,11
-19.59,28.11,15.09,11
-15.16,30.85,15.09,11
-13.54,28.63,15.1,11
-18.79,35.53,15.15,11
-17.92,27.51,15.09,11
-20.24,32.67,15.11,11
-12.95,31.99,15.09,11
-19.36,40.36,15.13,11
-19.94,40.96,15.09,11
-20.2,39.57,15.09,11
-20.18,27.59,15.09,11
-30.72,29.51,15.18,11
-18.33,27.94,15.08,11
-22.0,42.07,15.1,11
-34.26,36.12,15.09,11
-27.77,31.31,15.11,11
-17.32,28.98,15.1,11
-14.73,36.34,15.12,11
-35.76,33.66,3.27,11
-20.3,36.8,15.1,11
-22.51,29.9,15.1,11
-28.77,43.3,15.9,11
-29.86,31.12,16.42,11
-18.22,33.37,15.09,11
-30.87,32.68,15.1,11
-16.43,29.23,15.09,11
-29.56,39.68,15.02,11
-27.98,41.92,15.19,11
-17.4,39.92,15.08,11
-17.34,41.03,15.09,11
-17.51,39.47,15.11,11
-30.49,31.12,16.34,11
-29.99,39.82,15.2,11
-24.58,36.12,15.32,11
-17.98,28.68,15.1,11
-17.87,40.11,15.1,11
-17.04,27.96,15.08,11
-14.75,30.11,15.09,11
-27.6,39.34,15.08,11
-17.02,42.13,15.09,11
-24.53,36.56,15.19,11
-16.36,37.43,15.08,11
-15.39,39.14,15.79,11
-26.85,32.97,15.36,11
-28.52,34.71,15.1,11
-15.35,33.72,16.32,11
-22.89,35.63,15.08,11
-26.13,27.2,16.1,11
-34.11,40.93,15.1,11
-24.37,28.47,15.11,11
-14.47,33.5,15.09,11
-27.39,41.29,15.08,11
-22.46,40.1,15.08,11
-15.63,36.98,15.08,11
-23.04,38.22,15.21,11
-16.05,41.71,15.1,11
-23.51,37.4,15.72,11
-14.15,41.61,15.09,11
-27.82,33.13,15.09,11
-30.19,30.64,16.28,11
-19.43,28.54,15.07,11
-34.0,39.74,15.1,11
-17.46,31.29,15.11,11
-22.0,28.74,15.07,11
-16.86,41.61,15.08,11
-23.68,36.6,15.11,11
-31.57,27.22,15.86,11
-35.06,36.42,15.1,11
-19.64,43.28,15.88,11
-17.92,32.97,15.1,11
-29.79,28.21,15.08,11
-26.34,33.94,15.1,11
-16.61,38.86,15.1,11
-34.07,41.94,15.17,11
-15.16,39.34,15.2,11
-13.95,31.87,15.1,11
-23.76,29.9,15.11,11
-34.61,37.27,15.09,11
-22.96,30.09,15.45,11
-33.19,37.52,15.08,11
-20.23,38.7,15.08,11
-28.5,29.18,15.1,11
-26.58,37.38,15.62,11
-18.4,43.54,10.8,11
-21.24,28.22,15.09,11
-18.72,40.51,15.08,11
-30.38,41.49,15.1,11
-26.88,39.6,15.24,11
-30.99,39.83,15.13,11
-14.64,27.94,15.09,11
-20.31,37.58,15.13,11
-12.39,35.63,3.26,11
-27.48,40.05,15.09,11
-24.13,33.96,15.09,11
-24.71,39.76,15.15,11
-14.41,32.5,15.1,11
-15.34,32.55,16.32,11
-12.53,30.83,3.26,11
-12.48,33.62,3.27,11
-31.63,28.66,15.1,11
-12.18,34.93,3.26,11
-14.81,40.76,15.09,11
-24.84,40.86,15.1,11
-25.58,28.65,15.09,11
-12.08,30.38,3.27,11
-22.9,34.02,15.11,11
-31.17,43.0,16.06,11
-12.33,28.5,6.01,11
-17.51,30.91,15.1,11
-17.52,36.98,15.1,11
-14.78,32.96,15.09,11
-18.68,32.97,15.1,11
-17.51,29.84,15.1,11
-33.35,32.56,15.09,11
-16.83,28.21,15.09,11
-18.5,34.67,15.09,11
-14.44,30.88,15.11,11
-12.42,38.12,7.95,11
-18.67,32.98,15.12,11
-13.75,39.4,15.1,11
-13.43,31.87,15.1,11
-13.39,36.27,15.09,11
-18.75,28.66,15.12,11
-13.39,30.89,15.08,11
-33.23,29.27,15.1,11
-34.11,29.37,15.09,11
-32.63,28.41,15.09,11
-33.32,42.45,15.09,11
-32.91,43.35,3.26,11
-31.98,34.84,15.09,11
-32.14,42.45,15.12,11
-33.78,35.69,15.11,11
-34.52,28.82,15.16,11
-33.11,38.04,15.16,11
-15.07,35.97,15.09,11
-21.36,36.2,15.09,11
-17.69,36.82,15.14,11
-14.3,40.95,15.09,11
-27.23,37.53,15.07,11
-14.44,42.0,15.12,11
-23.52,39.45,15.56,11
-21.45,42.46,15.09,11
-18.88,42.44,15.08,11
-13.99,42.37,15.1,11
-26.13,42.38,15.1,11
-18.01,34.49,15.06,11
-13.44,33.66,15.09,11
-18.76,28.66,15.1,11
-28.67,42.47,15.12,11
-23.7,36.17,15.09,11
-22.27,42.45,15.09,11
-20.65,43.68,14.36,11
-30.22,28.13,15.1,11
-23.34,42.46,15.1,11
-19.46,28.6,15.04,11
-18.94,43.56,3.28,11
-34.0,36.25,15.1,11
-17.49,42.46,15.08,11
-31.05,30.84,16.42,11
-24.48,37.15,15.45,11
-23.51,37.3,15.63,11
-32.8,29.45,15.05,11
-19.48,43.56,3.25,11
-21.79,40.87,15.08,11
-32.03,35.86,15.1,11
-15.35,33.72,16.32,11
-14.26,28.55,15.1,11
-32.41,41.71,15.09,11
-28.31,36.72,15.1,11
-15.49,42.13,15.08,11
-25.95,34.3,15.05,11
-17.93,34.73,15.09,11
-14.85,40.5,15.09,11
-22.49,41.4,15.09,11
-35.71,37.64,11.54,11
-35.26,28.5,7.44,11
-31.89,36.58,15.09,11
-35.59,39.68,8.08,11
-32.86,36.98,15.11,11
-35.49,33.98,10.87,11
-35.42,39.64,11.38,11
-35.63,35.83,3.18,11
-24.51,32.68,15.58,11
-22.51,39.34,15.6,11
-29.46,28.82,15.1,11
-27.91,30.33,15.07,11
-29.51,27.39,15.08,11
-34.08,42.82,15.09,11
-20.9,27.55,15.09,11
-30.97,36.58,15.1,11
-30.94,40.05,15.09,11
-27.99,27.39,15.09,11
-19.07,28.02,15.22,11
-16.55,27.38,15.08,11
-12.83,27.42,15.97,11
-22.29,33.16,15.13,11
-15.51,27.42,15.13,11
-35.63,42.2,8.11,11
-24.69,42.31,15.1,11
-19.17,42.36,15.09,11
-23.51,39.33,15.62,11
-24.51,39.33,15.61,11
-15.82,42.81,15.14,11
-24.21,27.72,15.12,11
-15.16,31.66,15.08,11
-12.52,42.22,7.65,11
-12.39,41.6,5.74,11
-14.72,37.77,15.07,11
-35.05,37.83,8.79,11
-26.95,31.63,15.54,11
-32.67,28.88,16.33,11
-20.54,30.45,15.24,11
-17.39,30.28,15.18,11
-41.3,19.98,3.26,1
-33.19,22.36,10.73,1
-39.61,20.75,26.21,1
-36.33,21.62,3.26,1
-35.64,20.62,3.26,1
-35.05,20.98,3.29,1
-35.64,21.65,3.28,1
-34.85,22.0,12.66,1
-18.44,24.32,17.16,1
-30.26,22.99,24.11,1
-19.42,24.3,14.73,1
-17.29,24.77,25.69,1
-17.63,24.74,15.54,1
-23.16,23.51,28.59,1
-17.57,24.67,24.65,1
-33.18,22.21,25.74,1
-20.29,24.49,25.69,1
-20.41,24.46,30.74,1
-27.93,23.38,13.53,1
-17.26,24.75,13.81,1
-19.35,24.45,13.63,1
-28.21,23.42,27.9,1
-17.37,24.67,29.12,1
-23.62,23.02,10.64,1
-18.93,24.5,30.8,1
-22.16,24.34,22.84,1
-28.24,23.37,20.28,1
-32.61,22.03,18.12,1
-32.57,22.03,20.66,1
-39.71,20.64,3.35,1
-32.59,22.0,10.46,1
-34.77,21.88,20.09,1
-25.1,23.92,30.39,1
-26.3,23.68,12.62,1
-29.65,23.16,25.33,1
-18.97,24.49,15.73,1
-24.71,23.67,30.82,1
-19.73,24.43,25.76,1
-19.5,24.51,19.67,1
-38.98,20.48,3.31,1
-33.23,22.25,23.26,1
-28.3,23.39,17.78,1
-20.79,24.43,12.99,1
-23.23,23.64,21.06,1
-23.91,22.73,28.23,1
-20.34,24.3,16.28,1
-33.63,22.36,10.11,1
-18.67,24.56,13.14,1
-17.57,24.61,14.43,1
-12.49,17.94,3.27,1
-12.56,15.14,3.26,1
-12.72,11.0,3.26,1
-13.72,12.53,3.26,1
-13.1,12.71,3.27,1
-34.03,22.18,5.68,1
-35.7,12.99,3.26,1
-27.97,23.4,46.78,1
-33.3,22.32,56.33,1
-35.63,18.52,82.06,1
-28.74,23.26,47.39,1
-18.54,24.66,34.23,1
-20.73,24.41,9.1,1
-19.62,24.52,13.86,1
-23.9,23.32,51.09,1
-18.97,24.29,65.4,1
-28.68,19.89,81.98,1
-29.57,19.71,81.94,1
-18.82,21.35,81.95,1
-24.46,23.48,8.22,1
-30.77,18.63,81.97,1
-28.18,23.46,6.58,1
-19.54,24.46,29.05,1
-16.57,21.62,81.95,1
-20.05,21.28,81.94,1
-18.55,21.02,81.95,1
-31.42,19.53,81.95,1
-33.66,19.42,81.96,1
-34.74,18.72,81.95,1
-12.52,18.76,3.27,1
-38.37,16.97,3.26,1
-34.73,12.14,3.3,1
-36.22,13.64,3.26,1
-35.38,17.5,81.95,1
-36.2,17.48,81.95,1
-36.5,19.6,81.95,1
-36.89,18.26,81.94,1
-37.38,19.46,81.95,1
-36.13,16.03,82.21,1
-34.81,20.27,81.95,1
-21.64,15.79,84.81,1
-19.01,19.74,84.81,1
-31.19,13.54,82.2,1
-27.77,17.44,84.8,1
-21.12,12.5,82.21,1
-22.08,19.44,84.81,1
-38.31,20.03,82.21,1
-34.6,17.77,81.95,1
-32.08,12.81,82.22,1
-34.17,17.46,81.95,1
-30.14,15.22,81.94,1
-20.04,18.48,84.81,1
-33.62,20.06,81.95,1
-25.92,21.0,81.94,1
-22.11,15.1,84.81,1
-31.24,20.77,81.95,1
-12.68,11.41,82.53,1
-26.55,16.41,84.94,1
-22.41,11.35,82.21,1
-15.17,19.34,83.96,1
-18.1,22.04,81.95,1
-22.51,15.03,84.8,1
-18.85,14.61,84.81,1
-36.2,20.58,82.2,1
-19.47,18.84,84.81,1
-13.99,12.6,82.03,1
-30.87,20.56,81.94,1
-35.6,17.89,81.95,1
-16.34,19.36,83.96,1
-29.45,16.33,81.95,1
-16.44,18.74,83.99,1
-29.3,14.94,81.95,1
-17.67,22.67,81.95,1
-18.87,15.71,84.81,1
-19.97,20.0,84.81,1
-35.03,19.95,81.95,1
-28.97,14.01,81.95,1
-31.61,14.54,81.95,1
-34.09,14.36,81.96,1
-31.54,22.09,82.21,1
-15.9,22.4,81.89,1
-15.7,23.86,83.95,1
-31.44,15.27,81.95,1
-26.24,14.2,81.94,1
-20.67,20.19,84.8,1
-34.22,19.73,81.95,1
-34.47,14.76,81.95,1
-25.68,11.24,3.26,1
-38.11,17.58,3.31,1
-35.12,13.18,3.26,1
-36.44,18.66,81.95,1
-37.33,20.89,82.21,1
-36.82,20.86,82.21,1
-28.64,11.47,45.7,1
-28.64,11.47,40.62,1
-28.99,11.45,48.26,1
-38.01,20.67,82.21,1
-27.06,13.89,81.95,1
-29.03,13.25,81.94,1
-20.81,10.73,3.26,1
-23.15,11.06,3.26,1
-39.97,18.73,3.26,1
-38.03,15.47,3.26,1
-28.39,11.0,3.26,1
-15.28,10.31,3.26,1
-28.64,11.83,33.02,1
-17.81,11.25,3.26,1
-16.74,10.75,3.26,1
-29.05,11.04,33.21,1
-28.91,11.66,3.32,1
-28.98,12.57,45.7,1
-19.97,11.43,3.26,1
-18.74,11.76,3.26,1
-28.12,12.71,48.28,1
-30.18,11.06,46.36,1
-30.18,11.05,38.77,1
-30.18,11.06,43.83,1
-30.17,11.05,41.29,1
-30.19,11.06,36.2,1
-30.19,11.11,48.84,1
-24.32,11.8,3.25,1
-24.16,11.02,7.81,1
-21.49,11.42,3.26,1
-30.07,12.58,45.72,1
-29.86,11.8,3.37,1
-29.89,11.99,4.38,1
-15.61,24.82,85.11,1
-27.93,20.0,85.28,1
-26.55,19.1,84.94,1
-22.91,15.58,84.63,1
-40.38,19.39,83.46,1
-25.14,21.93,81.97,1
-15.21,15.4,84.03,1
-28.85,19.88,84.68,1
-34.53,17.52,82.17,1
-33.17,19.43,81.86,1
-33.21,16.12,81.9,1
-23.01,12.61,81.94,1
-21.9,22.63,81.94,1
-14.72,13.08,82.03,1
23.83,21.98,19.67,13
11.16,21.99,3.26,13
18.03,28.41,20.46,13
23.35,22.22,21.69,13
21.12,21.96,20.62,13
21.7,22.2,19.14,13
24.28,21.99,22.21,13
23.23,22.18,19.12,13
25.79,26.34,20.23,13
14.32,29.75,20.25,13
21.63,21.97,21.37,13
16.8,22.15,20.19,13
17.56,25.5,19.49,13
20.94,22.06,19.25,13
21.0,22.13,27.65,13
25.65,27.64,19.45,13
28.02,22.23,19.02,13
16.48,22.1,27.84,13
16.46,22.09,25.02,13
15.02,27.28,20.03,13
18.66,22.16,27.63,13
21.62,22.0,26.36,13
21.61,22.0,23.55,13
28.32,22.02,26.36,13
28.32,22.01,23.55,13
18.21,22.04,27.84,13
30.45,22.23,26.34,13
16.55,22.08,21.51,13
13.65,21.95,23.06,13
25.08,21.99,25.03,13
26.65,21.86,27.65,13
31.22,21.92,22.99,13
16.06,21.96,26.31,13
25.32,22.16,27.64,13
26.88,26.53,20.42,13
26.21,25.45,20.44,13
23.67,22.03,23.31,13
12.8,22.31,19.43,13
28.0,21.98,20.11,13
20.48,32.41,14.35,13
28.82,22.02,26.41,13
28.82,22.02,23.6,13
28.33,22.0,19.53,13
26.1,27.79,20.41,13
19.06,22.0,25.02,13
18.23,21.94,21.34,13
23.32,21.94,25.03,13
19.79,21.91,27.71,13
19.75,21.95,24.95,13
28.33,21.96,26.96,13
18.51,28.18,20.64,13
28.63,22.12,25.57,13
18.96,22.13,22.08,13
26.24,28.67,20.34,13
26.24,26.61,20.42,13
18.6,22.18,24.64,13
26.25,22.19,24.9,13
21.12,22.09,26.51,13
28.81,22.02,19.45,13
20.02,22.09,24.71,13
15.6,22.01,22.23,13
12.52,31.86,20.01,13
26.89,26.51,20.43,13
27.23,28.74,20.28,13
32.73,29.4,17.26,13
11.35,28.42,3.25,13
21.39,21.99,20.62,13
14.03,13.59,30.72,13
13.98,18.49,30.84,13
17.47,27.66,19.69,13
13.99,14.53,30.82,13
30.46,29.7,19.37,13
18.39,21.87,20.3,13
28.34,21.83,29.11,13
18.24,27.39,20.51,13
25.94,28.1,20.41,13
27.48,28.77,19.71,13
30.99,19.01,30.77,13
30.95,15.75,30.71,13
12.02,31.04,7.74,13
30.95,19.92,30.66,13
23.79,11.4,28.2,13
16.41,10.95,27.65,13
27.48,11.32,6.41,13
18.21,11.09,8.12,13
18.75,11.03,5.08,13
14.09,11.35,5.16,13
19.94,10.54,3.26,13
26.73,11.38,3.42,13
17.71,10.6,3.34,13
20.92,11.34,27.72,13
16.24,11.39,5.4,13
26.74,11.16,8.03,13
30.33,13.71,30.82,13
14.44,13.64,30.97,13
23.47,10.94,27.68,13
23.49,12.34,30.18,13
12.16,25.98,13.77,13
19.62,10.23,10.71,13
24.82,11.35,5.74,13
20.86,11.38,4.44,13
18.82,11.16,3.29,13
23.9,11.63,3.91,13
18.75,10.54,10.84,13
31.21,11.19,5.54,13
12.15,30.99,9.67,13
21.9,26.11,19.8,13
11.74,25.33,19.5,13
26.94,26.58,20.46,13
12.11,30.45,16.23,13
11.39,28.43,3.17,13
11.62,26.8,7.1,13
25.72,28.45,20.37,13
12.49,26.84,7.98,13
52.22,31.93,3.27,15
49.24,15.04,3.26,15
62.23,31.95,3.26,15
55.46,31.34,3.26,15
60.49,31.98,3.26,15
49.95,24.92,3.27,15
59.23,31.06,3.26,15
49.23,28.8,3.22,15
56.28,30.75,3.26,15
52.62,31.44,3.25,15
63.95,32.01,3.27,15
50.79,32.23,25.41,15
50.43,32.12,25.25,15
49.95,24.92,3.26,15
67.81,32.2,3.26,15
51.35,32.27,13.51,15
50.1,32.21,12.13,15
64.45,31.77,3.35,15
56.68,32.04,3.41,15
51.54,32.18,25.32,15
66.71,32.12,13.24,15
66.75,30.01,3.26,15
59.07,30.07,3.25,15
53.81,32.29,3.27,15
58.14,31.52,4.44,15
69.36,17.53,3.25,15
69.33,18.32,3.24,15
49.7,16.36,3.62,15
49.24,31.07,3.25,15
49.36,20.64,3.26,15
56.97,31.48,3.26,15
65.1,14.91,61.41,15
53.92,19.92,62.72,15
56.91,31.57,61.51,15
52.31,25.84,62.12,15
59.27,31.62,61.4,15
64.77,27.43,61.4,15
52.87,24.17,61.4,15
59.3,23.63,63.83,15
52.27,12.73,61.41,15
64.08,14.43,61.4,15
50.93,19.97,61.39,15
52.43,20.23,61.4,15
56.44,16.32,61.41,15
63.04,29.77,61.41,15
52.76,30.32,61.41,15
64.17,15.38,61.4,15
53.63,14.46,61.42,15
54.92,27.79,61.4,15
56.21,14.2,61.4,15
59.24,16.49,62.88,15
59.23,29.67,62.87,15
59.23,27.81,62.87,15
59.25,24.29,63.81,15
57.41,27.86,61.43,15
64.95,15.79,61.4,15
57.87,21.35,34.41,15
57.44,23.32,63.82,15
56.27,29.68,61.41,15
52.15,22.5,61.38,15
53.5,27.97,61.41,15
64.1,29.67,61.4,15
59.23,14.63,62.87,15
59.71,27.78,62.86,15
59.71,29.64,62.86,15
55.06,12.9,61.38,15
59.45,28.97,62.88,15
54.46,23.57,61.4,15
60.9,28.72,62.85,15
54.79,30.79,61.39,15
51.24,13.53,61.4,15
61.67,25.09,63.84,15
55.44,14.44,61.4,15
58.28,25.15,63.81,15
63.29,27.4,61.41,15
64.93,17.22,61.4,15
53.46,28.87,61.41,15
59.26,17.32,62.32,15
63.78,12.65,61.4,15
56.26,25.77,61.4,15
55.62,12.75,61.41,15
52.93,13.98,61.4,15
56.84,13.17,61.41,15
55.25,29.07,61.4,15
52.17,31.7,3.23,15
62.58,19.46,63.82,15
53.45,12.5,61.4,15
55.78,31.34,61.39,15
50.12,23.25,61.39,15
52.03,27.52,61.41,15
55.18,20.06,62.7,15
50.88,12.52,61.4,15
54.21,28.24,61.39,15
67.94,31.52,3.41,15
57.33,21.85,63.82,15
61.97,25.77,61.41,15
57.87,21.06,63.82,15
61.13,25.84,61.38,15
53.6,23.86,61.42,15
58.84,30.89,61.4,15
59.34,31.63,3.19,15
54.09,30.6,61.37,15
55.83,27.4,61.4,15
56.88,25.05,63.88,15
55.59,13.77,61.4,15
56.52,27.49,61.4,15
58.76,14.15,62.84,15
60.3,17.28,62.44,15
64.71,29.9,61.41,15
60.78,22.93,63.82,15
62.44,28.5,61.4,15
64.65,30.94,61.41,15
58.89,25.72,61.4,15
55.19,31.19,3.25,15
54.14,17.68,61.4,15
53.11,19.31,61.41,15
60.32,29.24,62.86,15
57.23,24.44,63.82,15
60.33,27.41,62.9,15
55.17,29.58,61.4,15
55.82,26.62,61.39,15
51.83,12.52,61.39,15
61.42,23.88,63.83,15
58.14,30.89,61.4,15
60.65,27.91,62.86,15
54.2,22.62,62.83,15
60.31,14.2,62.85,15
60.32,25.7,61.41,15
59.45,25.81,61.4,15
59.63,17.26,62.41,15
60.33,16.08,62.88,15
66.58,18.33,61.42,15
67.22,29.65,61.4,15
66.38,24.07,61.4,15
54.37,28.83,61.41,15
68.42,27.53,61.4,15
66.58,22.65,61.41,15
51.69,14.13,61.41,15
67.59,26.54,61.4,15
65.34,25.98,61.4,15
66.41,14.65,61.4,15
53.24,30.04,61.4,15
52.42,16.12,61.4,15
66.16,24.69,61.4,15
66.38,15.09,61.4,15
65.96,23.91,61.4,15
54.0,19.27,62.77,15
67.86,14.29,61.4,15
67.83,26.89,61.41,15
51.26,14.51,61.39,15
51.51,12.96,61.41,15
57.2,13.33,61.39,15
55.03,29.37,61.42,15
56.65,24.56,63.81,15
65.56,14.95,61.4,15
51.88,16.09,61.41,15
68.2,14.84,61.4,15
66.82,21.96,61.39,15
65.57,31.27,61.4,15
66.31,28.69,61.4,15
52.26,12.88,61.42,15
52.41,22.4,61.4,15
66.47,25.07,61.4,15
67.43,14.22,61.4,15
55.99,28.52,61.4,15
62.33,23.08,63.84,15
68.24,25.95,61.41,15
65.98,26.25,61.4,15
59.92,18.67,62.8,15
56.91,15.62,61.41,15
56.41,24.06,63.83,15
56.3,21.93,63.86,15
65.8,25.24,61.39,15
66.89,26.35,61.41,15
56.04,27.79,61.4,15
66.98,13.94,61.4,15
66.47,14.01,61.42,15
65.08,31.31,61.41,15
57.15,12.8,61.39,15
62.43,24.72,63.89,15
56.78,15.23,61.41,15
56.67,13.51,61.41,15
51.41,29.86,61.41,15
64.78,30.58,61.39,15
65.08,14.59,61.39,15
56.3,26.28,61.38,15
67.75,18.14,61.4,15
52.01,22.9,61.38,15
65.56,23.11,61.4,15
66.26,14.04,61.41,15
65.6,24.01,61.48,15
65.35,20.2,61.49,15
67.52,14.46,61.41,15
66.6,14.44,61.4,15
66.47,23.54,61.4,15
65.98,30.38,61.39,15
66.67,23.76,61.41,15
66.72,13.59,61.4,15
68.0,27.11,61.41,15
54.35,30.59,61.4,15
66.15,24.11,61.4,15
65.37,14.78,61.4,15
68.9,28.72,61.41,15
66.83,23.28,61.4,15
62.44,24.39,63.82,15
60.66,29.7,62.79,15
66.07,24.47,61.4,15
66.29,22.73,61.41,15
54.33,19.57,62.77,15
65.24,27.66,61.41,15
65.78,25.54,61.4,15
56.89,29.05,61.4,15
66.49,26.39,61.41,15
65.78,24.84,61.39,15
68.19,14.06,61.4,15
68.9,29.11,61.42,15
59.09,14.16,62.87,15
66.03,14.13,61.41,15
66.1,25.72,61.41,15
68.58,27.83,61.41,15
68.56,30.36,61.41,15
68.55,29.44,61.4,15
66.59,27.98,61.41,15
68.55,26.69,61.42,15
68.55,25.35,61.4,15
68.57,14.92,61.41,15
68.54,16.39,61.41,15
68.48,25.07,61.4,15
68.46,24.57,61.41,15
68.41,14.05,61.4,15
49.68,18.87,3.26,15
49.42,30.58,11.92,15
53.9,23.04,62.92,15
58.88,18.32,61.47,15
55.92,23.97,63.85,15
59.96,25.99,61.47,15
55.46,12.56,61.4,15
56.84,13.16,61.41,15
49.92,23.2,3.29,15
54.97,19.5,62.79,15
61.12,26.05,61.39,15
63.78,12.65,61.41,15
51.98,31.71,61.39,15
60.4,25.21,63.82,15
58.28,29.61,62.89,15
54.91,17.68,61.4,15
57.48,19.19,63.91,15
59.7,25.24,63.81,15
51.28,31.74,61.38,15
54.78,22.9,62.78,15
59.15,30.18,62.87,15
54.96,21.85,62.81,15
66.24,30.44,61.4,15
59.23,29.66,62.88,15
59.23,27.8,62.87,15
59.44,25.97,61.44,15
56.29,21.32,63.84,15
56.8,12.49,61.51,15
59.18,15.15,62.87,15
65.58,12.92,61.39,15
65.59,12.46,61.45,15
62.23,11.96,3.24,15
63.96,12.01,3.23,15
54.14,29.67,61.42,15
57.65,25.08,63.83,15
62.09,31.52,61.4,15
54.51,31.48,61.4,15
51.87,31.75,61.4,15
62.48,18.67,61.52,15
55.46,31.42,61.41,15
59.92,18.5,61.42,15
58.19,18.57,61.41,15
59.1,25.06,63.8,15
58.76,14.16,62.86,15
64.82,31.71,61.42,15
60.64,14.64,62.84,15
65.61,31.23,61.41,15
65.89,11.98,3.25,15
69.25,15.03,3.28,15
51.48,12.08,3.24,15
67.82,12.2,3.26,15
62.05,12.09,15.93,15
55.93,12.04,3.25,15
67.17,13.2,3.56,15
57.08,12.07,17.21,15
66.66,14.21,3.26,15
51.21,13.48,3.26,15
61.29,13.69,6.05,15
54.77,12.19,3.26,15
62.77,25.55,63.71,15
49.64,22.57,61.08,15
59.11,18.29,62.99,15
56.51,15.49,61.35,15
53.64,21.18,62.13,15
58.77,17.46,61.47,15
51.9,25.81,62.33,15
49.41,12.85,58.72,15
49.42,31.42,58.73,15
57.7,29.78,62.16,15
57.73,16.64,62.14,15
56.9,22.0,63.91,15
60.66,16.5,62.81,15
60.66,27.82,62.8,15
58.86,15.45,61.95,15
59.73,31.65,60.81,15
49.37,17.95,61.22,15
57.83,29.82,61.1,15
51.2,31.48,61.92,15
60.48,25.18,63.84,15
49.44,32.01,61.73,15
55.14,30.39,61.4,15
57.28,27.76,61.33,15
57.49,16.56,61.24,15
54.99,20.58,62.6,15
52.32,25.83,62.08,15
55.48,23.16,62.62,15
58.29,16.42,62.88,15
57.73,17.2,61.53,15
57.76,30.39,61.5,15
68.49,25.81,61.36,15
60.45,25.08,63.88,15
66.02,27.46,61.52,15
59.15,28.2,62.73,15
59.82,28.2,62.9,15
59.83,30.07,62.89,15
80.63,23.8,30.3,3
77.56,36.67,30.28,3
80.39,37.46,30.29,3
77.9,29.15,30.28,3
80.09,36.3,30.29,3
78.36,38.2,30.29,3
80.36,33.39,30.29,3
77.06,35.83,30.29,3
80.12,30.94,30.27,3
78.85,35.92,30.28,3
76.1,34.56,30.3,3
76.06,28.93,30.29,3
77.93,34.27,30.29,3
78.33,36.68,30.32,3
74.55,40.38,31.25,3
75.84,36.98,30.29,3
84.43,40.55,3.38,3
79.11,36.47,30.28,3
80.56,39.6,30.29,3
79.57,35.35,30.28,3
77.63,39.55,30.29,3
75.38,37.26,30.29,3
77.24,31.59,30.29,3
83.93,39.99,3.3,3
79.46,33.78,30.27,3
77.98,32.65,30.29,3
73.69,31.55,4.79,3
75.69,36.22,30.28,3
78.53,34.22,30.29,3
78.94,36.83,30.29,3
76.12,28.1,30.28,3
76.37,40.24,3.45,3
80.55,34.75,30.27,3
80.6,31.43,30.29,3
78.9,27.81,30.29,3
77.5,34.69,30.29,3
78.3,35.7,30.32,3
79.09,35.09,30.3,3
77.93,39.09,30.3,3
79.99,35.81,30.3,3
76.18,32.92,30.29,3
77.18,39.44,30.28,3
77.15,33.16,30.27,3
79.51,34.89,30.31,3
80.77,35.83,30.27,3
76.69,29.92,30.29,3
76.57,33.22,30.29,3
86.3,23.37,30.31,3
81.03,30.86,30.33,3
85.34,24.48,30.28,3
84.71,37.11,30.28,3
86.08,25.95,30.29,3
87.88,29.32,30.26,3
82.39,34.51,30.39,3
79.52,24.78,30.3,3
87.1,36.34,30.3,3
80.68,35.61,30.28,3
75.65,38.08,30.29,3
87.1,23.64,30.29,3
77.57,36.67,30.3,3
82.54,36.16,30.28,3
84.15,31.34,30.29,3
84.28,35.36,30.29,3
80.63,32.95,30.29,3
80.19,32.48,30.28,3
81.26,28.46,31.8,3
84.57,39.05,30.3,3
85.61,26.2,30.3,3
88.25,40.38,31.29,3
84.59,32.06,30.29,3
85.06,33.6,30.28,3
84.62,31.54,30.29,3
81.11,36.49,30.27,3
81.64,30.94,30.46,3
82.38,26.21,31.84,3
81.28,35.58,30.29,3
80.97,31.49,30.32,3
80.64,35.28,30.28,3
86.55,24.69,30.27,3
81.79,30.79,31.9,3
82.32,37.45,30.29,3
82.65,36.8,30.29,3
85.07,39.37,30.33,3
80.06,39.5,30.28,3
88.09,24.31,30.28,3
81.17,31.03,30.3,3
82.06,39.6,30.31,3
86.98,34.64,30.29,3
83.3,36.33,30.28,3
84.97,35.76,30.3,3
81.26,32.58,30.29,3
88.08,25.85,30.29,3
81.63,35.71,30.29,3
82.03,37.62,30.28,3
88.12,36.16,30.31,3
86.89,39.53,30.28,3
86.76,24.43,30.29,3
85.85,34.59,30.26,3
80.44,26.17,30.28,3
82.87,38.66,30.28,3
80.37,23.87,30.29,3
85.96,25.48,30.29,3
86.59,26.68,30.29,3
84.37,38.63,30.28,3
87.71,28.44,30.26,3
84.26,39.48,30.26,3
85.3,23.62,30.28,3
83.07,24.03,30.28,3
85.86,39.46,30.29,3
83.94,37.35,30.28,3
81.11,31.82,30.29,3
86.93,25.38,30.28,3
75.52,25.88,30.29,3
83.19,37.08,30.29,3
83.72,35.74,30.28,3
82.79,31.61,30.3,3
79.55,38.6,30.22,3
75.69,36.21,30.28,3
82.79,30.5,31.89,3
83.16,31.0,30.28,3
85.31,38.78,30.29,3
85.14,36.31,30.28,3
81.39,36.82,30.29,3
81.8,26.77,31.87,3
86.87,27.11,30.29,3
75.77,39.34,30.22,3
81.9,30.5,31.89,3
82.76,30.86,31.72,3
82.76,32.12,30.32,3
82.76,37.07,30.28,3
86.46,39.5,30.27,3
82.27,36.53,30.27,3
78.02,39.32,30.28,3
84.28,37.01,30.3,3
82.33,30.57,31.82,3
82.23,30.98,30.22,3
81.93,26.31,31.83,3
83.18,39.97,3.26,3
86.46,24.24,30.29,3
79.17,35.81,30.22,3
78.66,36.17,30.28,3
86.13,39.57,30.28,3
85.48,38.57,30.28,3
84.83,38.84,30.29,3
83.77,37.37,30.27,3
83.06,36.32,30.3,3
81.98,36.51,30.29,3
80.43,35.45,30.3,3
83.64,29.5,31.87,3
81.01,29.48,31.9,3
81.73,26.28,31.96,3
82.07,30.83,31.97,3
86.31,24.4,30.29,3
75.79,39.48,3.35,3
79.77,34.64,30.28,3
78.5,38.28,30.3,3
75.88,37.1,30.29,3
75.1,38.99,30.29,3
79.17,24.22,30.28,3
80.71,35.43,30.28,3
81.09,29.63,31.91,3
83.41,29.83,31.89,3
86.31,24.59,30.31,3
78.71,35.88,30.28,3
76.84,36.55,30.28,3
81.31,30.35,31.86,3
89.49,35.46,16.56,3
88.08,37.6,30.3,3
87.09,37.43,30.26,3
81.44,34.96,30.25,3
81.87,31.02,30.31,3
82.87,26.79,31.89,3
81.17,30.9,31.81,3
85.3,34.54,30.29,3
83.35,30.9,31.2,3
84.8,33.16,30.29,3
85.55,24.63,30.28,3
79.42,25.22,30.29,3
79.13,25.88,30.28,3
78.66,24.34,30.29,3
77.85,27.22,30.29,3
77.67,31.9,30.29,3
74.68,28.18,30.28,3
82.05,39.53,30.3,3
76.24,36.79,30.29,3
89.24,35.03,3.26,3
88.94,36.94,3.26,3
85.41,39.02,30.28,3
84.03,38.87,30.31,3
82.11,36.99,30.29,3
83.6,27.48,31.88,3
84.24,29.44,30.28,3
83.32,31.76,30.31,3
88.39,22.44,5.95,3
86.07,24.25,30.29,3
83.08,26.34,31.89,3
89.17,37.64,3.26,3
87.86,38.46,30.28,3
87.83,37.97,30.29,3
87.82,37.09,30.27,3
87.89,26.63,30.27,3
87.89,26.05,30.28,3
87.86,32.8,30.29,3
77.85,26.44,30.29,3
77.38,32.95,30.28,3
88.7,26.03,5.72,3
80.73,28.26,31.84,3
88.86,38.57,3.27,3
89.2,29.52,3.26,3
89.21,28.82,3.25,3
88.87,24.27,3.24,3
80.53,35.93,30.29,3
84.14,33.19,30.29,3
84.04,26.96,30.29,3
86.97,25.75,30.29,3
83.77,29.13,30.63,3
79.01,24.6,30.29,3
85.1,32.91,30.28,3
80.36,31.52,30.28,3
84.46,26.57,30.28,3
89.62,36.44,3.25,3
87.62,37.81,30.29,3
87.61,35.04,30.28,3
87.58,35.46,30.28,3
80.45,35.21,30.27,3
78.93,36.83,30.28,3
87.64,26.72,30.29,3
87.64,29.15,30.29,3
87.62,31.44,30.29,3
87.62,24.32,30.28,3
87.6,32.61,30.28,3
87.63,25.53,30.3,3
87.58,33.34,30.27,3
84.79,27.29,30.29,3
83.83,32.57,30.28,3
87.32,37.48,30.28,3
87.53,34.03,30.29,3
87.49,25.32,30.29,3
87.53,28.15,30.28,3
88.79,27.82,5.62,3
80.0,35.81,30.29,3
82.41,35.71,30.3,3
76.34,16.71,30.29,3
78.17,32.46,30.28,3
76.47,39.92,30.28,3
80.49,39.95,30.29,3
80.48,32.75,30.28,3
84.03,40.38,3.37,3
77.92,39.07,30.28,3
78.26,35.08,30.27,3
80.1,39.4,30.28,3
78.52,13.99,30.28,3
84.83,22.36,30.28,3
81.22,14.47,30.29,3
82.84,12.4,30.43,3
82.88,35.84,30.3,3
82.63,27.55,31.93,3
83.74,19.96,30.67,3
82.38,26.23,31.85,3
80.21,18.46,30.62,3
77.14,22.03,30.31,3
82.73,21.2,30.84,3
81.15,21.18,30.88,3
81.26,17.75,31.08,3
79.3,34.95,30.29,3
81.77,16.29,30.29,3
81.94,19.34,31.45,3
87.37,39.96,30.3,3
80.8,39.95,30.3,3
80.78,12.57,30.3,3
88.05,18.44,30.29,3
80.52,37.96,30.27,3
86.78,17.07,30.29,3
78.05,16.0,30.29,3
85.99,15.3,30.29,3
88.06,23.04,30.28,3
85.97,37.5,30.28,3
85.53,18.65,30.29,3
80.36,23.27,30.29,3
82.18,13.73,30.29,3
84.0,24.38,30.3,3
86.14,17.87,30.29,3
85.3,15.99,30.29,3
80.87,16.3,30.28,3
79.03,12.52,30.25,3
84.9,25.26,30.26,3
83.49,16.15,30.26,3
88.08,19.31,30.31,3
84.26,15.77,30.28,3
85.11,17.59,30.29,3
81.51,12.51,30.3,3
84.52,23.02,30.3,3
84.75,21.45,30.3,3
86.16,39.89,30.28,3
82.77,21.7,30.54,3
82.13,25.05,30.89,3
83.57,21.97,30.28,3
84.63,39.87,30.29,3
84.39,20.84,30.29,3
84.59,24.19,30.28,3
79.95,22.32,30.29,3
86.86,39.91,30.28,3
79.1,26.72,30.3,3
86.3,17.15,30.29,3
83.43,31.58,30.27,3
85.78,18.13,30.25,3
84.88,14.93,30.29,3
83.09,12.4,30.95,3
85.53,39.94,30.31,3
76.13,15.34,30.29,3
86.7,23.22,30.28,3
75.6,23.58,32.72,3
77.69,13.9,30.29,3
86.92,15.99,30.29,3
86.86,17.93,30.29,3
76.32,18.34,30.28,3
79.07,18.98,30.31,3
75.65,38.92,30.26,3
82.94,39.25,30.29,3
84.59,19.85,30.31,3
85.16,18.9,30.28,3
83.8,15.77,30.28,3
74.83,31.3,30.3,3
86.16,15.7,30.3,3
75.11,15.3,30.29,3
80.88,14.37,30.29,3
82.34,30.18,31.85,3
77.9,26.42,30.29,3
74.75,21.21,30.28,3
81.91,37.93,30.28,3
88.07,23.05,30.29,3
86.68,23.04,30.28,3
86.86,21.73,30.28,3
85.5,20.6,30.29,3
86.76,32.12,30.28,3
88.08,24.32,30.28,3
