-70.28759003 -91.93643951 3.25827813 204 204 210
-70.26964569 -92.83546448 3.26908064 210 211 215
-76.93055725 -88.30935669 8.00230694 177 170 171
-91.78927612 36.84790802 3.39307904 201 200 208
-85.39646912 7.22674465 3.25259352 210 210 215
-85.29627991 -46.31382751 3.25460291 202 199 198
-85.82365417 -94.50071716 3.16016316 221 221 226
-85.80933380 -98.46422577 3.15157986 223 223 228
-71.72914886 60.58457565 27.42863083 181 185 194
-75.45417786 52.56711197 30.15187836 217 215 219
-74.67974854 61.87075424 27.37435532 166 170 183
-78.07236481 46.00192261 25.28229332 211 211 217
-65.86068726 -41.09683228 20.23596764 223 221 224
-65.15660858 -51.68575287 3.12974072 180 181 188
-67.14215088 -51.02491760 3.13419890 162 163 173
-60.49155426 -89.45166016 3.26836109 193 194 199
-59.37801361 -92.55944061 3.27251983 205 204 209
-63.98361588 -90.37709808 3.53162026 203 203 211
-76.99198914 -29.73536682 20.15926552 224 223 225
-71.00866699 -94.80945587 3.14833283 168 167 177
-80.45365906 12.19462299 45.22041702 215 214 217
-74.35458374 -58.74982834 14.07927895 223 225 230
-84.62758636 53.93032837 27.35757446 159 158 165
-77.97606659 70.01697540 27.63512421 13 11 13
-71.65711975 52.04477310 29.93020439 148 132 128
-70.70690918 51.98977661 26.80562782 133 116 113
-73.28781128 61.00543213 27.42180824 153 157 167
-73.73910522 59.96601105 27.42095947 141 140 146
-74.17121887 59.45246506 27.42297173 161 166 175
-74.29087067 51.96306992 25.95110321 142 124 120
-76.78278351 59.45836258 27.42210007 150 151 153
-67.30006409 8.35687256 4.34519386 178 166 71
-64.36296844 8.44715881 3.26683593 170 168 175
-62.98062515 10.05272770 3.26350451 164 163 168
-68.07254791 0.37812364 3.16384196 147 146 155
-59.45791245 -7.46478224 6.35120106 73 73 80
-67.28695679 -6.85179234 3.14330983 150 151 160
-56.92125320 -9.55376244 3.26633978 179 173 167
-58.11306763 -46.63534927 3.16750145 143 142 153
-61.59130478 -46.08309937 3.26232553 178 169 162
-60.04644394 -46.09237671 3.26957130 173 166 159
-67.03466034 -46.09094620 3.26558924 174 166 159
-55.80577850 -48.65853119 3.16592169 160 159 169
-58.34791183 -56.45742035 3.25598907 138 137 149
-58.70235443 -50.00478363 3.14787006 143 142 152
-59.61521530 -53.31181717 3.18002844 160 159 168
-60.95368576 -50.16990662 3.16044784 168 167 175
-65.61042786 -49.76621628 3.15767789 150 150 158
-68.53796387 -51.24495697 3.13426018 142 141 153
-69.49381256 -53.28677368 3.15070653 146 145 154
-59.00057983 -72.97428894 10.76722145 133 139 122
-58.44298172 -73.03811646 10.76918125 148 153 143
-63.78075790 -73.10481262 10.77811432 148 152 139
-69.78539276 -74.46945190 3.27076840 132 126 131
-69.36853027 -88.91982269 3.39558458 43 44 53
-63.85535812 -82.07234955 10.77056122 136 141 130
-62.95637131 -82.03749084 10.76995659 160 162 160
-69.78298187 -90.15100861 3.25879121 164 159 159
-66.79908752 -83.48816681 10.76767540 147 150 140
-62.96704483 -79.80410767 10.76691628 148 155 142
-64.66044617 -82.82931519 10.77404881 154 161 143
-63.05022049 -81.34313202 10.76886654 163 167 158
-64.66364288 -83.49971771 10.77003670 159 162 156
-64.65107727 -82.05105591 10.77423000 149 155 139
-59.97322845 -83.56835175 10.76853466 172 175 170
-61.59175110 -82.05536652 10.77050209 150 160 141
-69.88934326 -88.49926758 3.39304161 140 165 122
-67.57787323 -88.48156738 3.38428235 153 170 136
-55.48374176 -92.36002350 3.26523447 178 177 183
-59.05652237 -96.23564911 3.14010692 146 147 156
-59.51240540 -96.72792053 3.14024234 148 148 157
-60.47886658 -93.24185944 3.15732789 150 151 159
-64.53968811 -91.38086700 5.54704618 178 180 195
-65.32051849 -91.37844086 5.55081034 156 162 179
-65.53548431 -96.47087860 3.13595462 142 142 152
-68.39724731 -92.70092010 3.26266885 168 169 176
-69.08670807 -91.14302063 3.26000142 160 158 164
-69.84574890 -93.21669769 3.13910818 154 155 162
-69.89370728 -92.68080902 3.26381230 176 177 177
-80.44549561 69.96533203 27.61564445 126 108 106
-80.75514984 63.92184448 27.42613602 157 164 176
-82.25107574 41.94138336 25.28638268 142 144 144
-82.58034515 46.32064438 25.31795883 127 118 115
-80.35894775 42.12411118 25.28158569 168 176 163
-71.97330475 6.94353962 3.16316247 156 157 164
-72.18669891 6.79404688 3.13694286 155 155 162
-74.30780029 -3.46902585 3.15327191 150 150 158
-75.03379059 -3.26310587 3.14425135 155 154 163
-79.02214813 0.42201594 3.14854765 150 150 158
-80.64974213 0.38054693 3.14844298 152 152 159
-84.57933044 7.47189856 6.37917709 87 89 97
-76.37896729 -6.83436632 3.13635802 159 159 166
-74.03591919 -46.09369659 3.26686525 170 163 157
-78.71612549 -46.08811569 3.26676226 183 175 170
93.15787506 -84.30998993 3.13466978 163 162 171
-77.11978149 -48.74477386 3.12975049 156 155 164
-77.18505859 -49.81653976 3.13515162 153 153 162
-81.50819397 -50.15550232 3.13214111 193 193 200
-81.92760468 -49.79475021 3.15756631 156 156 164
-83.08653259 -53.36372757 3.13046980 161 159 168
-83.22116852 -50.22855759 3.14930511 162 161 169
-83.89233398 -49.74785614 3.15027356 144 145 153
-70.46054077 -75.92605591 3.26497626 169 168 174
-71.54055023 -88.46308899 3.39232898 151 170 134
-76.78956604 -86.00012970 7.15602684 129 125 130
-76.79882813 -86.53726959 7.15860605 132 129 134
-71.56809998 -87.38542938 3.39642644 145 165 129
-76.77697754 -87.33802795 7.13702822 127 125 129
-81.12478638 -79.12065887 7.17767859 105 106 111
-81.05539703 -78.11502075 7.15851355 92 93 99
-70.36587524 -87.63016510 3.38689709 124 151 102
-84.67313385 -88.36494446 7.18630028 120 119 126
-83.85662842 -88.40638733 7.21806574 88 88 94
-84.43981934 -87.50637054 7.16093826 96 96 103
-73.47839355 -89.62614441 3.26207685 197 194 198
-81.38261414 -85.00302887 7.15806961 106 106 114
-83.38600922 -83.51029968 7.16567183 98 99 106
-79.75981140 -76.96224213 7.16287994 86 87 92
-80.49549103 -76.93876648 7.16063499 85 84 91
-80.97283173 -85.95098877 7.13420200 100 102 108
-74.05185699 -86.42592621 3.26492953 162 162 171
-70.76467133 -87.38090515 3.38602567 148 165 125
-70.46171570 -91.60674286 3.26446176 178 177 183
-71.32609558 -92.60398865 3.25079656 179 179 184
-73.04549408 -93.23320007 3.17022443 147 146 157
-74.53531647 -96.68291473 3.14758062 148 147 157
-76.14582062 -96.68570709 3.12176132 152 151 162
-78.32572937 -93.29023743 3.11215520 155 155 165
-78.95392609 -93.12609863 3.16192365 173 174 181
-79.05709839 -92.34761047 3.32142782 141 70 74
-80.74793243 -93.16002655 3.13861299 134 133 144
-81.95763397 -93.64109802 3.14210153 147 145 156
-82.04312134 -96.69789124 3.13271689 152 151 161
-83.11581421 -96.72920227 3.14625931 139 139 149
-83.14862823 -94.93339539 3.14316344 146 146 155
-83.65583038 -98.21322632 3.15693474 143 142 152
-83.67764282 -98.95059967 3.12677836 145 145 156
-83.70894623 -93.90019226 3.14979482 156 155 165
-83.75926971 -96.25202942 3.13767004 140 140 149
-84.08598328 -92.70142365 3.27560759 180 180 186
-84.06690216 -93.14843750 3.17733145 164 163 172
-84.31517792 -93.14919281 3.16617250 165 165 174
-84.75741577 -93.45046234 3.14493942 155 154 164
-92.10095215 89.31071472 6.65845823 10 17 30
-95.40891266 65.78554535 3.23102021 147 147 157
-94.55537415 34.27145767 3.13466382 146 146 156
-85.31920624 -4.79111862 3.21207333 147 151 156
-91.69420624 -9.48341274 3.16528535 149 148 158
-89.58406067 -27.42219543 3.25657034 176 168 164
-93.09996796 -23.91379356 3.15707660 177 178 184
-95.78511047 -44.58796692 3.14890242 152 151 161
-93.22395325 -71.65985870 3.15454793 164 164 173
-96.67079163 -70.00071716 3.14583302 158 156 167
-98.29825592 -68.86642456 3.14016700 157 158 169
-87.08384705 -79.10720825 7.15633440 134 134 141
-96.32555389 -78.83564758 3.09456730 147 147 156
-89.15343475 -96.40142822 3.13480330 162 162 171
-98.39274597 -99.85501099 3.13388777 171 173 183
-99.92510223 -91.22599030 3.13022351 167 169 179
-99.91175079 -95.59165955 3.14218473 165 166 177
-70.98429108 59.67121506 27.41332054 149 150 152
-58.44880676 -47.53184509 3.14270377 154 154 163
-60.39533234 -50.51217651 3.13951850 147 148 156
-71.47213745 -58.15345383 14.04891872 186 185 190
-69.88098907 -62.53620911 14.15832901 138 111 106
-65.22084808 -89.65799713 3.23359251 119 119 130
-63.17818069 -82.46300507 11.01335526 136 107 101
-61.78579330 -89.72470093 3.26127672 109 111 121
-68.38610077 -90.73553467 3.26590276 142 140 148
-83.07160950 54.84363174 27.86203766 19 23 37
-70.96841431 1.96716499 3.17622519 135 135 143
-72.04780579 6.61464643 3.13880134 146 147 154
-73.42406464 6.61630774 3.18012118 145 144 154
-83.46946716 3.99869108 3.15919399 151 151 160
-78.54309845 -17.18854904 20.97240639 159 156 160
-79.21377563 -17.32138443 21.02170563 153 152 156
-80.41889191 -46.79249191 3.16020083 146 145 153
-74.57955170 -54.41857529 3.26342964 167 168 174
-83.57170105 -49.45849228 3.19408607 154 155 162
-84.19233704 -50.25777817 3.12624907 165 165 172
-79.68086243 -79.34551239 7.98897028 49 51 53
-80.09562683 -83.01602936 8.32661533 108 108 118
-84.13894653 -76.43717194 7.21580458 117 119 128
-79.06707001 -88.24418640 7.18022823 73 73 80
-82.56565094 -88.34362793 7.15823984 83 84 90
-81.66226959 -88.26514435 7.16119623 93 92 101
-70.05506897 -86.93171692 3.39607787 137 160 120
-80.39418793 -85.90322876 7.20137262 111 111 117
-81.11083221 -78.45783234 7.23281336 112 113 119
-71.27983856 -87.04567719 3.41283751 160 178 140
-71.46092987 -87.97211456 3.37421942 133 153 111
-81.49662781 -85.89388275 7.16490650 88 87 95
-70.64352417 -92.34912109 3.25633097 162 163 168
-71.50615692 -93.44075012 3.16682577 143 143 152
-81.32003021 -93.24288177 3.14674067 138 138 145
-85.16118622 -3.47490811 3.16355610 145 145 153
-85.94430542 -1.11844742 3.16573405 155 155 163
-98.99496460 -87.24472809 3.13105774 164 165 173
-87.08190918 -76.15265656 7.17342901 120 120 127
-88.23683167 -96.97009277 3.14245653 161 162 170
-60.74710846 6.50853539 3.15380645 146 145 155
-64.75825500 6.50008297 3.16450143 142 142 150
-74.88599396 -29.82705116 21.03873062 151 149 152
-65.86601257 -47.06719589 3.17266965 161 160 168
-58.88882065 -50.41375732 3.17080522 158 158 167
-63.01103210 -89.66892242 3.27090573 108 113 122
-56.07006454 -99.33419037 3.15032673 136 136 147
-61.05250549 -99.37753296 3.13830853 139 140 150
-66.81776428 -99.45238495 3.12489939 143 143 154
-80.15239716 67.29895020 27.78909874 117 87 79
-85.48180389 54.99224091 27.59645844 85 91 115
-77.77397156 6.52260256 3.13855672 155 155 163
-78.20535278 -47.12050629 3.16109943 160 160 168
-83.07891846 -47.28462219 3.19000077 158 157 166
-71.45814514 -53.00000763 3.12841845 152 151 160
-82.82457733 -52.93364334 3.14260840 144 144 152
-72.97885132 -93.51132202 3.13456535 154 153 162
-83.45201874 -95.99781799 3.15225148 158 158 167
-85.21348572 -47.06091690 3.16915154 158 157 165
-85.24191284 -48.59965134 3.13294291 173 173 180
-85.26273346 -49.56760788 3.14655662 165 165 173
-85.09300232 -93.72577667 3.14095449 161 160 169
-85.11336517 -95.11600494 3.16541529 167 167 176
-85.09072113 -99.54133606 3.14387536 156 157 166
-85.15331268 -98.06237030 3.16470861 166 165 175
-83.92562866 -51.99747467 3.17641950 160 158 168
-82.84782410 -93.82039642 3.16995883 153 152 162
-82.93550873 -99.14909363 3.15562701 142 143 153
-66.51320648 30.27456856 24.37103271 195 201 215
-42.27347183 -65.03002167 10.86317348 171 172 186
-45.46762466 -23.74695969 3.28925157 216 211 208
-96.51075745 -79.35235596 3.13304830 173 173 180
-76.50162506 -50.00072098 3.14666820 189 189 195
-36.91685486 -58.04614639 15.48274708 99 94 96
-25.67883492 11.23968029 3.26293135 173 172 188
-33.42126846 -92.87995148 3.22603011 211 211 215
-50.00035858 -84.42265320 3.13205743 167 167 176
-62.17810440 53.28022385 27.38917542 181 183 193
-25.67938805 -88.39170837 3.26644397 187 187 199
-48.21110916 -97.45006561 3.13895845 174 174 183
-42.24968719 -52.19240952 10.84580708 172 174 189
-30.09931755 -99.22823334 3.13811278 175 174 183
-44.52054977 -62.60469818 3.26209021 187 187 194
-50.13262939 -94.82348633 3.13665342 169 169 179
-64.15156555 53.14977646 27.41386795 184 184 193
-38.29352570 -58.89401245 14.89356899 76 72 74
-50.93548584 -97.81996155 3.14155793 179 180 188
-46.41592026 -80.20709991 3.26175761 210 211 215
-91.46485138 -23.57350159 3.16128135 207 203 200
-27.33271790 -90.02793121 3.27921820 202 201 207
-47.92998886 -90.61384583 3.14514828 217 217 222
-48.99264145 -14.08983612 3.13723421 219 219 224
-54.46255493 -98.02460480 3.13394904 176 177 185
-37.00661469 -63.53465652 15.69609356 70 67 65
-25.30386353 -89.94727325 3.27692103 186 186 194
-58.60322952 30.21220970 3.23558974 184 183 194
-40.39478302 -88.80795288 3.76774693 167 155 165
-34.74210358 -95.04380798 3.15047216 179 179 187
-29.33189011 -80.55575562 5.44455814 187 187 194
-56.99578857 -78.45822144 10.76898289 209 209 212
-71.70362091 -46.40037537 3.26603651 206 204 207
-82.80490112 -57.96181870 14.10973644 221 222 229
-60.31568909 -56.87144470 3.30546927 178 177 190
-42.31270981 -48.73770142 8.02720547 165 166 180
-40.92364120 7.11893034 3.27044797 197 197 203
-25.53462982 -84.58234406 3.26569748 156 154 172
-40.93035507 -92.87866974 3.25734091 204 204 210
-78.65798187 12.74986076 45.35207748 213 211 216
-33.11303329 -91.53221130 3.27226448 196 198 203
-19.32578850 -10.12729931 3.26341939 207 203 200
-54.30388641 -91.63742828 3.25909352 208 208 213
-35.70521164 -86.47394562 3.25988412 204 204 211
-39.82219315 -17.53422165 3.22596645 191 181 173
-86.72122955 -75.88421631 7.29501820 196 196 205
-43.46121597 -7.09139585 3.25829101 211 211 216
-70.35424805 69.78724670 27.42186928 162 164 174
-34.02126694 -88.08509827 3.31140018 196 195 203
-43.84988403 -81.04787445 3.26323199 192 191 198
-43.84500122 -94.60935974 3.14436650 176 176 185
-96.51192474 -42.59891510 3.12927866 179 179 187
-41.48672867 -0.15012245 3.09609103 185 178 151
-44.80473328 72.29004669 3.27510643 207 206 208
-58.18727112 -84.15503693 10.77774429 211 210 216
-66.57760620 -43.74216080 3.26596642 211 207 206
-45.74587631 -31.08316422 3.26431394 212 209 209
-45.98781204 39.87713623 3.19891381 202 201 208
-71.70520782 -45.33849335 3.25853014 206 202 199
-46.17387009 -79.41770935 3.27786922 210 209 216
-66.50805664 -72.78227234 10.78219986 209 208 215
-47.41242599 -98.14958191 3.13917875 175 175 184
-68.74974060 -82.21920013 10.76612091 210 212 212
-42.08322906 -95.70500946 3.14312410 167 166 176
-51.02337265 -88.39153290 3.13977432 222 222 227
-85.09278870 -86.37318420 7.17062378 110 110 119
-51.02347946 -90.65824890 3.14669991 216 216 222
-48.11701202 45.51447678 3.18407989 144 142 152
-47.96723557 -11.29401112 3.16572428 220 219 225
-37.01371765 -57.07734680 15.68000603 84 79 79
-46.91422272 -90.65166473 3.15090561 209 209 215
-60.83968735 -94.17090607 3.13766170 167 167 176
-85.94271851 -50.97472382 3.14276528 222 222 227
-85.93684387 -49.00391006 3.13321614 221 220 225
-85.61815643 -1.62153900 3.13583159 217 217 222
-31.63112831 -91.76291656 3.26064229 221 220 223
-51.22283173 -27.83455276 3.20466924 174 173 181
-41.34973526 -88.39373016 3.25894785 202 201 209
-85.82149506 5.49064636 3.15712142 224 224 228
-56.99990082 -75.06944275 10.77230549 180 181 185
-43.09987259 -37.75176239 3.26632738 192 184 184
-84.62319946 -78.25993347 7.79711151 202 200 206
-47.88033295 -87.27455902 3.13757539 167 167 176
-78.48313141 -83.58916473 9.50252533 204 203 208
-44.59634018 42.88657379 3.23348379 201 201 208
-82.99911499 -49.97991180 3.14199305 177 176 184
-25.96045113 -81.80967712 3.26532221 166 165 180
-46.41652679 -81.21189117 3.26826572 210 210 214
-40.50386810 -90.19853973 5.70396709 229 228 231
-84.40358734 -91.24815369 3.23647594 149 148 153
-40.29779434 41.88037109 3.18452859 195 195 203
-73.61836243 -92.56667328 3.24654269 205 204 209
-45.46872330 -70.27622223 5.67214870 229 229 233
-36.98109818 -56.31741714 15.72006416 70 64 63
-38.82316589 71.28311920 7.29002285 166 165 180
-59.60812378 -18.84555435 3.26205349 209 206 206
-81.95037842 11.55146408 45.24132156 218 217 220
-68.75122070 -81.45799255 10.77445602 210 211 210
-28.89484787 -88.03718567 3.24763536 204 203 210
-43.87267303 -39.32262039 3.26314116 209 203 198
-63.18672180 57.09196091 27.42603302 178 179 184
-35.69345474 -87.57556152 3.26146531 202 202 209
-70.63148499 -57.20302963 3.25509286 173 173 186
-75.06102753 -92.68641663 3.32437253 209 209 213
-56.51760483 -7.15120316 3.26025414 208 207 209
-59.27295685 -24.73647881 3.26439214 214 208 205
-43.89036942 -66.95223999 3.22241163 201 201 209
-37.00872803 -54.27046204 15.69649982 70 66 65
-31.75369644 -9.31351089 3.26104498 204 200 197
-50.79606247 23.27485275 3.15557194 160 159 169
-66.28627014 -46.40116501 3.25581288 210 209 212
-53.66411591 -35.60408401 3.24800181 210 208 210
-59.40985489 52.03731155 28.20949936 137 119 117
-47.39640427 -91.43380737 3.13732958 170 171 179
-42.65586090 -42.73077393 3.26190567 200 195 196
-25.58800697 -64.73903656 3.25071883 128 129 145
-31.75112343 -20.99285316 3.25815439 210 206 205
-38.10921860 17.58479881 3.30761027 170 169 185
-43.42238235 45.92164993 3.26109910 189 188 197
-40.37905502 -32.25674438 20.72972107 163 162 165
-46.18406677 -90.75958252 3.26950455 209 209 215
-45.75069809 -11.64744091 3.26412106 206 202 201
-26.98051643 7.13828993 3.27254558 208 208 212
-45.69960022 26.37877846 3.43120265 190 190 197
-83.38295746 -45.74938583 3.26455522 207 201 196
-53.93934631 24.65465546 3.27674985 196 196 203
-33.85361481 -56.26526642 15.61543274 82 76 80
-54.17171860 -35.21580505 3.26171994 210 207 204
-25.28584862 -92.25484467 3.26649570 173 176 181
-48.24389648 -91.35969543 3.13809395 181 182 190
-62.66032410 -90.19849396 3.26740360 196 195 200
-65.12104034 -71.72146606 5.84803104 184 184 195
-42.65809631 -28.78740883 3.26557302 183 177 180
-57.14107895 -77.88304138 10.77276611 219 218 223
-26.99632454 -75.57545471 3.23825765 185 186 192
-35.64752960 -88.18333435 3.25972152 202 201 209
-25.85303879 -88.96437073 3.26405740 181 180 187
-45.62687302 27.87737274 5.54668856 221 221 226
-45.20846176 29.40233421 5.56429911 225 225 229
-46.30914307 -87.74786377 3.22116756 210 210 216
-33.45824051 -77.92800140 3.26265454 190 190 196
-30.33832741 -0.77273989 3.14727569 168 167 176
-41.53055954 -88.95829773 3.27237225 186 185 191
-89.97363281 -31.31356049 3.27105904 201 195 193
-54.60292816 -34.82254410 3.26289153 212 207 203
-31.16841507 7.21345520 3.32606173 199 198 207
-54.60335922 -41.82580948 3.26268458 211 206 202
-59.27381134 -18.49855423 3.26519489 211 205 201
-65.26711273 18.31462288 3.25963044 176 175 184
-45.05138779 -41.24570084 3.26273751 210 205 202
-63.31693268 30.33899307 24.91501045 216 204 155
-57.71657562 -34.80137253 3.26746964 212 205 202
-42.72458649 -41.24129868 3.26016688 187 180 180
-61.31262589 -22.32644463 3.69703269 219 216 218
-43.10068893 -28.41530991 3.26173091 195 186 186
-54.22540283 -40.64959717 3.26474619 202 196 192
-43.10266113 -41.65948486 3.26595736 196 188 186
-46.41302872 -87.16188049 3.27193332 212 212 216
-65.77864838 -89.73493958 3.25129604 188 189 194
-44.63056564 27.38847733 3.20711994 211 211 217
-61.08269882 53.20332718 27.46424675 176 175 185
-33.96863937 -92.73458862 3.24920225 214 215 220
-45.44741821 -24.50036049 3.26856017 206 199 194
-54.08158875 -67.30548096 3.24941492 192 191 195
-58.47470856 -27.89788818 3.26552582 208 203 200
-31.13394928 -92.73065186 3.29569960 212 211 218
-54.91139603 -45.73622131 3.25890326 206 206 209
-53.61138916 -67.49469757 3.25814557 203 203 208
-25.98382378 -24.50856590 3.26437902 200 191 187
-45.46645737 -37.68626785 3.20024920 208 202 200
-40.95805359 -92.26313782 3.24568439 192 194 199
-45.45906830 -47.52679062 4.28442812 220 211 107
-44.84216690 29.09475517 5.56019831 223 223 228
-34.41197586 11.77026939 3.25781178 176 176 189
-44.66267776 -37.78885651 3.26536465 211 206 202
-25.88665390 -71.81938934 3.25637889 142 142 156
-44.65894318 -19.13057137 3.25996327 199 192 187
-39.99052811 -19.14188194 3.26428628 204 197 193
-56.93252945 -34.06673431 3.26016641 210 204 199
-45.74443054 -38.08457565 3.26514006 206 202 202
-58.83001709 -18.87693214 3.26598454 209 205 202
-45.43788147 -35.42176437 3.26249647 212 206 202
-42.66681290 -54.41257477 8.14144230 169 171 186
-45.43903351 -12.07632446 3.26782894 213 208 205
-46.25514221 -89.71386719 3.28862166 207 207 213
-26.17971230 -63.02724457 3.26808310 197 197 206
-37.61134338 -89.06271362 5.65511274 219 217 221
-44.65710068 -35.47259521 3.26358700 207 202 197
-40.83058548 -89.24493408 3.31862497 171 171 184
-58.71278381 -73.38288879 10.76515484 203 202 209
-37.87559128 -39.14850998 22.06130600 215 215 221
-45.44140625 -27.66255569 3.26809120 207 200 196
-30.52107239 -89.77660370 3.37918258 77 77 87
-68.29183960 59.29825211 28.46226120 30 27 32
-54.13370514 -70.41892242 3.45439029 81 82 91
-40.48969269 -31.72082901 21.83024788 48 43 51
-45.78092194 15.69607353 3.20937181 137 137 151
-73.46584320 52.01553726 30.00827408 191 191 196
-59.53485489 -79.67931366 11.68495655 103 103 113
-45.56026840 -46.61623764 3.67564726 47 98 170
-52.85556412 -98.42338562 3.15715265 149 149 159
-28.02212524 -87.52951050 3.25698185 164 156 155
-99.75077820 92.35488129 3.13136959 134 134 146
-54.20524979 32.49195099 3.32370853 121 121 136
-34.05365372 -0.47592741 3.15240622 137 137 145
-71.59197998 -99.44781494 3.12219405 148 150 159
-59.61070251 -73.78550720 10.76686859 138 140 137
-68.09631348 -96.32404327 3.12966347 139 139 149
-67.45182037 53.28207016 29.69228172 83 89 111
-58.41539001 -96.33515167 3.13714719 136 136 146
-84.15013123 -75.37789154 7.12738895 113 89 76
-45.55572891 -94.99877930 3.14994979 145 144 155
-39.85397339 -99.58728027 3.13173890 147 147 157
-28.93235016 -96.32357025 3.15073633 142 142 152
-26.19212341 -99.44556427 3.11399364 139 141 150
-56.76261139 -82.02867126 10.77711773 50 41 44
-61.71438980 80.16848755 18.90731812 61 63 70
-35.11529922 13.17868614 3.26490569 108 108 126
-43.70205307 -87.52918243 3.25897074 167 160 159
-61.56614685 -73.82223511 10.77061462 153 159 149
-49.89113235 -99.40283203 3.13321877 158 159 169
-32.03662491 -8.17802715 4.33946848 124 168 216
-61.40508270 31.57636833 25.28224754 127 129 122
-27.28657722 -85.86209869 3.26097035 168 169 175
-39.51778793 69.82363892 7.36047935 164 146 133
-27.99725914 -6.52687263 3.19847441 155 155 162
-37.80275345 -88.82625580 5.16046906 34 37 69
-62.14721298 -93.38751221 3.16674805 142 142 151
-48.07521439 -38.24971390 3.14325833 164 164 172
-48.26777267 -99.74285889 3.12121463 165 166 174
-34.68848419 -96.68859100 3.13814187 146 145 156
-76.45737457 52.06114960 29.72531891 143 127 124
-45.88735199 -87.71365356 3.67737532 115 112 113
-74.95035553 -29.82499695 21.04852486 189 188 195
-59.32686996 -39.62142181 3.73418951 116 107 102
-35.77742004 -37.69715500 22.06694221 166 164 167
-81.29750061 6.79256821 3.16058254 142 142 148
-52.91819382 28.61084938 3.21609998 131 131 141
-42.83118820 0.43330979 3.11749101 151 150 158
-66.94981384 -90.98625946 5.40970516 77 76 90
-36.19717407 -93.13407135 3.16164017 160 160 169
-25.81481171 -76.49723053 3.32940865 150 148 165
-62.26115036 -82.87100220 10.76790428 136 140 130
-32.99934387 0.37055647 3.14032102 132 129 137
-31.72318649 -93.10620117 3.18424439 166 166 174
-32.90447998 -87.59371948 3.26120305 186 185 191
-35.43080521 -77.59394073 5.02971172 54 82 62
-31.58387756 4.57854605 3.13187408 142 142 151
-71.51052856 42.89882278 25.30544090 135 146 123
-53.38494110 31.43235016 3.21720386 140 140 150
-84.98229218 -88.22399902 7.21923876 85 87 92
-60.41429520 31.77570534 25.28185081 167 170 168
-53.26752090 -78.35615540 3.14271593 143 143 151
-42.69603729 -94.69836426 3.14231825 154 154 164
-75.61282349 7.90007830 3.26203465 203 198 198
-38.76910019 -37.22684479 22.08014107 154 153 156
-28.39721680 -88.61739349 3.25281286 176 176 183
-62.33306503 31.75066757 25.28562546 142 148 143
-84.84081268 -97.03369141 3.14056945 156 155 165
-29.39177895 53.35758591 3.10376167 153 152 163
-36.30189133 -95.19908905 3.13882232 148 147 157
-46.95053482 -60.68880463 3.09780407 146 145 154
-44.07941818 -88.61870575 3.25215268 170 170 178
-43.14241791 -98.21171570 3.13750362 160 160 169
-36.48767090 -71.80434418 3.26043224 195 191 194
-45.64227676 27.74655914 4.54713535 17 21 30
-53.88861084 -11.84792614 3.26207399 163 157 154
-85.66520691 -85.78801727 7.15994310 87 87 94
-53.30896378 -79.35206604 3.11809015 147 145 156
-35.23030090 11.09527969 3.30630422 171 171 181
-74.10000610 -93.51825714 3.17055535 142 142 151
-50.53514481 27.99828720 3.12782097 128 127 138
-78.44393158 0.37214842 3.13594699 165 164 171
-68.95726013 -95.95090485 3.14939594 136 135 145
-36.38213348 -0.45897928 3.14100575 138 137 146
-78.23600006 -81.15619659 8.96529102 173 174 188
-76.07334900 51.99527359 28.59671974 133 114 113
-40.80607986 -87.57986450 3.28736329 180 180 188
-35.10635757 12.24000835 3.32641554 125 125 140
-66.13911438 -76.68930054 10.76937675 159 165 151
-86.58300781 -93.14271545 3.17821527 150 151 160
-29.05693817 6.75545931 3.11999607 137 137 146
-88.22884369 -77.32482910 7.16700459 111 112 116
-53.33286285 -59.25590897 3.15413094 144 145 152
-47.40252304 -89.04753113 3.13700533 145 146 153
-58.91905594 79.32094574 18.89319801 35 35 40
-28.90886688 -0.50155944 3.10764551 142 141 150
-26.03933716 -91.87193298 3.33161902 154 154 163
-37.36131287 -88.81534576 3.53934431 54 33 64
-58.88795090 80.13986969 18.90472221 39 38 47
-42.32970047 -65.67311096 9.25033283 66 42 29
-42.73052216 -99.53897095 3.14628458 148 151 158
-29.89639473 -93.10959625 3.18737817 167 167 175
-58.34727859 -73.76933289 10.77085495 154 158 151
-28.76223373 -92.24250031 3.31567645 133 132 146
-30.52933311 -89.78221130 4.41626167 58 65 71
-51.46712112 -87.79077148 3.14733338 166 167 175
-59.01116180 -83.22230530 10.77099609 173 178 165
-36.97222137 -96.33673096 3.13892388 170 171 178
-83.69542694 -94.32798767 3.13884926 155 154 164
-50.44677734 -87.79171753 3.14721322 163 163 171
-33.43542099 -3.46897078 3.14549994 145 144 153
-46.69353485 -62.44068909 3.16407371 146 145 155
-52.97761917 -35.40214157 3.21588755 161 160 168
-64.53912354 -91.81640625 5.56439590 163 165 182
-59.95703888 -82.04029083 10.76735401 166 168 167
-53.45231628 -98.89962769 3.14163589 141 141 152
-38.46672058 -37.76464462 22.04565048 175 173 175
-67.10297394 52.17559052 27.59540939 129 110 106
-58.35102081 -76.85538483 10.76314735 151 158 143
-53.28801727 -80.02296448 3.17317033 148 147 158
-34.48855591 -92.31257629 3.25805020 182 182 188
-91.33550262 -46.42685318 3.15326452 143 143 152
-28.27099800 -96.22527313 3.13571525 146 147 155
-83.95376587 -77.03470612 7.17065287 145 144 152
-53.38776398 -59.91223526 3.16056323 154 154 162
-64.19875336 -82.55187988 10.82084656 137 109 102
-53.36576462 -81.88356781 3.13600016 161 162 170
-36.97072983 -86.31978607 3.36756730 175 174 183
-25.89858437 -74.80832672 3.36150861 122 121 136
-43.58460236 6.81657648 3.20399046 157 158 167
-58.36384201 -83.53679657 10.76766586 163 167 164
-31.04507446 -93.43272400 3.15004587 142 141 151
-31.31327629 -90.00348663 3.26809835 180 179 184
-88.37966919 5.99654102 3.14953303 160 158 169
-46.61128998 -54.30310822 3.18911743 166 167 176
-30.56763458 7.39340687 3.27173805 151 150 161
-34.89563370 -86.12738037 3.55323911 160 160 169
-34.25930786 6.66000652 3.14897037 141 141 150
-96.68132782 -61.05509186 3.17400265 186 184 193
-27.70086670 -72.45801544 3.25369000 181 182 189
-25.93859863 64.37709045 3.32683349 170 152 145
-86.35785675 -49.61721802 3.13841963 150 150 159
-80.16751099 -93.20030975 3.14682937 138 139 148
-49.50031662 -90.25039673 3.15036845 158 158 166
-57.74805069 -74.43864441 10.77050400 146 153 126
-35.19034195 -88.52674866 3.27280569 171 172 179
-26.12521172 -93.17784119 3.20190549 150 149 159
-83.69719696 6.10308599 3.11572790 157 157 165
-34.89091110 -99.60462952 3.13641000 154 154 164
-43.31685257 -79.49545288 3.26107764 186 186 192
-48.07224274 -87.79544067 3.14445543 150 150 159
-50.49895096 -90.42222595 3.14174342 156 156 165
-53.88462830 -92.13153839 3.13010001 154 154 162
-83.95123291 -77.57405853 7.17288637 144 144 152
-53.38718033 20.11586189 3.30235505 145 143 154
-47.43620682 -88.18365479 3.12725854 163 162 171
-60.85659790 -53.35727310 3.16939402 156 156 164
-84.85430908 0.52501768 3.10328317 152 152 160
-33.26480865 -93.39988708 3.12797403 141 142 150
-39.22089767 3.74232531 3.14263535 140 140 149
-59.11201477 -82.76507568 10.76923084 167 169 164
-53.91297150 -68.19705963 3.26007867 177 176 182
-84.31481171 6.86581230 3.15230060 173 172 181
-48.81201172 -91.06192017 3.13816762 168 167 177
-85.72549438 -98.92726135 3.12436152 165 164 174
-96.67915344 -44.61787796 3.15098166 178 177 186
-46.73937988 -87.85987091 3.14893103 152 153 161
-93.22089386 39.18268585 3.22718120 143 144 153
-51.78987503 -86.65681458 3.16757369 165 166 173
-53.37104416 14.41353607 3.14175820 156 154 161
-25.91803360 -92.35923004 3.25017691 156 157 165
-36.03365707 -86.78982544 3.25882959 172 171 177
-48.79319000 -87.97935486 3.11760783 148 148 157
-49.98348618 43.47234344 3.16003537 195 194 202
-38.13953781 -83.63390350 5.05999994 149 155 157
-19.69309235 -85.20404816 43.12058640 217 216 220
-27.22094345 0.21351637 3.14915347 188 182 152
-20.12872314 -64.87374115 43.09400177 224 223 227
0.17441648 -37.74620438 3.15109611 160 160 154
-47.51210022 -89.57894897 9.63413811 204 204 212
-63.33322906 70.00639343 27.78296280 138 121 121
-25.24576759 -92.88393402 3.26059842 199 199 205
-15.82137775 -73.98326111 43.12107086 218 217 220
-91.73883057 -33.98155975 5.52218771 229 229 233
-28.65703773 -99.13927460 3.15495157 163 163 173
-36.43521500 18.65524101 81.94595337 120 119 129
-19.69511032 -74.57946777 43.12052917 211 210 213
-71.46546173 -69.07222748 14.04474831 215 216 222
-92.89992523 -56.97094345 3.26532102 206 206 210
-31.27489090 -53.03240585 12.59751129 146 147 162
-60.42473984 -56.96003723 3.24966359 182 180 193
-19.69901276 -66.15247345 43.12178421 207 206 210
-77.56956482 -77.56864929 8.64953518 219 219 224
-65.22801208 16.40362740 3.29232860 194 193 202
-70.74357605 -79.81924438 3.26239109 208 207 213
-37.33415222 20.89332199 82.20642090 189 190 199
4.48503304 -8.82279682 3.16659927 164 164 174
-25.20960045 -10.92718792 3.25891590 203 199 194
-67.33901215 -66.62601471 3.26025677 207 206 212
-63.70519257 -74.73351288 10.75710583 204 205 209
-25.42569351 -78.26361847 34.42590714 163 163 178
-16.94196510 -81.50434113 43.12286758 201 198 203
-17.45572281 -82.27944946 43.12283707 212 211 215
-60.26855087 78.79452515 18.89834595 71 71 80
-92.91856384 -66.20894623 3.26911664 209 209 213
-53.59058380 38.98880005 3.26109409 210 210 214
-60.81064987 -34.89495468 3.26507044 213 208 204
-77.59299469 13.50152779 45.17864609 208 205 209
-66.75669861 30.36189842 15.84116077 195 193 199
-68.92391205 -73.93818665 10.78588963 201 203 205
-67.98966980 -92.02690125 5.54046726 225 225 230
-26.16499519 -63.02409363 3.24690080 197 196 205
-69.91343689 -78.38944244 3.26430392 185 184 192
-66.36189270 30.17201233 19.05930901 200 188 151
-60.04933167 -17.74450493 3.26368237 210 204 200
-36.82482529 20.85519028 82.21081543 180 182 192
-25.20873260 -8.99303722 3.26509428 205 198 194
-28.63770866 11.46523666 45.69914246 188 186 201
-73.28845215 -58.02220535 13.92344379 219 220 226
-56.10574341 32.70124817 3.26391697 207 206 213
-52.06323624 -88.40373993 3.13937092 215 215 220
-38.07148743 -88.04381561 3.19136930 198 198 206
-28.18928146 -12.92927361 3.28269386 204 198 194
-14.17903805 5.61317635 3.20497656 222 221 226
-88.72171021 -98.46508026 3.14565754 217 217 222
-15.74172974 -67.40390778 43.12968826 215 215 217
-53.59072113 -85.17377472 3.26606083 198 198 204
-58.25641632 -50.96784973 3.13015795 225 225 229
-57.18247223 -74.17625427 10.78317165 217 216 222
-41.44420624 -75.45827484 4.94680643 190 190 197
-0.54332161 14.03652763 3.13755083 217 216 222
-64.77715302 30.11045837 3.28438020 174 173 188
-54.53099823 -87.29469299 3.26033258 182 181 187
-28.64442444 11.46788120 40.62370300 189 187 202
-46.41950607 30.52028847 3.22344375 186 186 194
-32.98065948 -16.82050323 3.27484179 210 204 199
-9.65292645 -12.13829327 3.25974870 203 198 193
-53.05663300 -88.35620880 3.14073920 219 218 224
-8.07134342 -24.52497292 3.29626346 216 210 205
-54.44126511 -77.00865173 3.25332451 196 196 202
-68.19159698 30.16911125 3.24071455 179 180 192
-28.99181938 11.44923973 48.26160812 187 186 200
-42.92777634 -99.23417664 3.14097524 177 178 186
-92.85627747 -34.06285477 3.26611757 206 201 198
-25.16905212 -78.60498047 11.50924206 143 143 160
-8.09517670 -23.75370598 3.25913262 212 206 202
-26.77955055 8.40648270 3.47418404 193 192 200
-68.84275055 -82.40029907 10.77560616 211 211 217
-50.79193115 45.27606583 3.12905264 150 152 160
-54.53130722 -71.61456299 3.25991964 195 194 199
-10.75322628 -10.09692574 3.25358939 190 186 186
-63.81678772 30.24498558 3.23147655 164 161 173
-25.66413116 -63.53004837 3.26986504 173 173 186
-15.92476845 0.21005744 3.13542795 184 180 156
-32.25446320 -77.57205963 3.25873280 195 195 204
-42.48576355 -99.76463318 3.11509657 186 184 174
-83.90591431 -99.73606110 3.13633037 207 207 214
-25.55391502 -57.31994247 20.60821533 223 222 227
-67.87812805 -62.33503342 3.27728963 180 180 193
-49.57135010 -75.71317291 3.13537407 151 150 162
-46.32380676 -86.26467133 3.19102383 204 203 208
-53.67416763 32.52516174 3.29558992 209 209 213
-15.50695992 7.24241972 3.28414297 209 208 215
-8.88186455 -13.66323757 3.26281285 211 206 201
-75.02568817 -85.38902283 3.23960876 198 198 202
-11.37307072 -41.53562927 20.74565125 209 208 212
-25.23217392 -75.79046631 37.65298462 100 15 22
-18.66694260 -81.67154694 43.12179184 182 178 185
-21.03299522 -46.46742630 3.25548649 171 171 179
-22.33194733 -70.43860626 43.12966537 204 203 207
-20.17932701 -77.85783386 43.12152863 205 203 207
-56.73228455 7.68755150 3.27750444 135 135 149
-43.95704651 0.01000759 3.14924598 177 176 180
-69.26327515 33.46858978 25.28799629 153 156 160
-10.57263279 -28.14725113 22.19959068 172 172 180
-16.65376091 -67.55953217 43.12549973 195 192 197
-25.43371201 -46.47456741 3.25572848 177 177 187
-16.46401215 -82.39958954 43.12134933 198 196 200
-81.16499329 -45.60978317 3.43009114 161 86 84
-21.32865906 -76.10223389 43.12080765 184 182 186
-13.77499676 67.36798859 5.82016468 120 143 165
-76.12255096 -19.08874702 19.91254997 154 151 155
-18.20129967 -46.46498489 3.25249100 183 181 194
-96.33877563 -62.90442657 3.13734007 153 152 162
-92.41371155 -99.87500763 3.13000894 178 179 188
-35.43863678 -99.44286346 3.10314703 157 158 168
-26.20388603 -99.44345856 3.13372159 153 154 163
-27.87603569 -31.97882080 20.81823730 130 127 131
-21.91768646 6.48413181 3.17246032 152 152 160
-72.25598145 52.07565308 25.58699226 142 126 121
-33.05107117 1.61943579 3.13654375 151 151 160
-38.01321030 20.67473984 82.20993805 147 147 160
-16.60996246 -83.71366119 43.12194061 200 197 202
-91.71894836 -87.70098114 3.63740945 136 132 136
-14.69048691 -37.11943817 22.07021713 178 177 185
-56.47721863 -66.88217926 6.21212196 33 42 41
3.65951347 -54.05474472 3.14008737 151 152 160
-16.61067200 -68.71280670 43.12296677 205 202 207
-19.68637276 -81.32079315 43.12311172 183 179 186
-53.33362198 -81.24129486 3.15006351 146 147 154
-27.01086617 -41.96956253 21.16318130 191 191 202
-25.16644096 -75.85092926 20.26519394 107 47 52
-46.64303207 -50.34735107 3.14773870 154 155 163
-35.17084122 -90.82308197 3.26037431 176 175 181
-33.10330963 -33.97117996 20.74274635 203 202 205
-18.35158920 6.63901424 3.13957930 144 142 152
-26.11191177 -76.49769592 3.28346229 160 159 172
-55.17906952 -97.04074860 3.13926792 151 150 161
-22.18197823 -46.47842026 3.25992393 186 186 196
-53.32510757 10.08718204 3.14467716 158 159 167
-6.84846544 -13.69427395 3.14453268 152 151 165
-83.95983887 -78.36564636 7.16462517 134 134 139
-68.81241608 -53.31651688 3.21022391 155 155 163
-53.27888107 -78.36463165 3.15445566 141 141 149
-62.25137329 28.52876663 3.28427100 178 178 183
-46.64630127 -17.84370804 3.15802741 157 157 164
-65.61150360 46.30968475 25.33555794 119 111 109
-21.05084229 -6.83923626 3.12862372 162 162 170
-93.10631561 -87.74770355 3.15045285 156 156 164
-53.27180862 -71.61102295 3.10832095 145 145 153
-32.69632339 6.89533567 3.13949704 152 154 161
-62.14896774 25.16891479 4.68766785 110 110 113
-63.95569992 25.12732124 4.78767252 110 110 114
-70.97906494 -49.77962494 3.14276767 157 156 164
-24.34615326 -93.12302399 3.15879560 155 153 164
-46.56945419 -71.49905396 3.14711380 171 172 179
-23.21444702 0.48157057 3.14222789 135 135 144
-69.82139587 -6.52028704 3.15078974 157 157 165
-17.15612984 -76.03115845 43.12348175 187 183 189
-65.50544739 23.73551178 3.26911306 181 180 186
-87.45058441 -85.78559113 7.15216970 112 113 118
-20.68429565 -63.34999084 38.64145279 122 106 92
-65.25077057 25.14774513 4.76556206 101 100 104
-16.85285187 -5.03451490 3.15178728 154 153 163
-53.38672256 -61.39719772 3.16949725 167 166 173
-2.03222489 -13.13695431 3.13419056 174 173 183
-26.00350571 -91.89128113 3.28001976 164 165 173
-43.59284973 -90.32389069 3.25591660 182 183 189
-85.11279297 -96.21409607 3.13386750 166 165 174
-67.13639832 -65.88068390 3.25963616 171 169 179
-85.10897827 3.79612970 3.15021586 161 160 169
-83.69039154 5.67250872 3.14972973 151 151 160
-65.03406525 27.10625458 3.28709197 165 164 174
-62.87402725 -93.19722748 3.16390729 157 156 165
-30.93194771 -0.34503382 3.16247725 177 175 169
-96.23301697 -14.70519829 3.15736675 154 153 162
-83.01300049 -85.64434814 7.17608738 100 99 106
-30.11792183 -31.96840858 20.73829651 201 200 207
-15.97233772 -6.81790686 3.17972803 139 138 147
-25.18501663 -78.35890198 18.43661118 130 130 149
-35.20056534 -37.56031418 22.02969933 176 177 190
-11.75058937 5.11765528 3.12333012 149 148 160
-15.68561459 -6.81261873 3.15349865 158 157 165
-6.94073677 11.67484379 3.17769074 146 146 155
-11.35108662 -41.94961929 21.18587494 197 197 207
3.00465322 -11.74998760 3.14103937 138 137 147
-81.22889709 -84.24726868 7.24391651 123 123 129
-17.62128258 -49.13351440 25.04637718 158 157 161
-53.01829529 32.99616623 3.18921614 134 134 144
-5.99963045 -10.86795425 3.12376070 142 141 151
-41.86336136 -93.28931427 3.15315533 150 150 158
-53.90438461 -83.87335205 3.25142503 182 181 187
-23.99347496 3.71750140 3.14731979 148 147 156
-46.48226547 -91.10034180 3.17147684 165 165 173
26.41896439 0.15724289 3.11702061 192 187 171
-22.41317368 -38.12879944 20.74327469 217 215 218
-69.77796936 30.22184563 3.12444687 184 184 197
19.23871803 0.15454432 3.13236499 197 193 178
14.17943954 -98.47264862 3.13996243 219 219 224
11.24192715 -93.53561401 3.14598727 216 216 222
11.24813938 -96.49831390 3.12937021 214 215 220
-40.92077255 -61.54042435 13.61608410 72 68 66
6.46767569 -88.76268005 3.14585567 217 216 222
-28.22484016 -67.79911804 3.25008512 200 200 205
25.73380661 79.13682556 20.54969215 188 188 194
-60.04991531 30.40900612 12.51390076 158 150 151
19.63947678 -98.34424591 3.13914299 178 178 187
-19.65818214 -63.40092468 10.97051239 147 146 162
-28.21870613 -66.96153259 3.24895477 201 201 207
7.06182814 -49.79153824 3.27330804 211 211 215
0.54242957 -88.76295471 3.14529800 215 215 221
0.17466001 -44.95737839 3.14969397 201 195 167
-14.05637646 -76.72344971 43.11584473 222 221 224
7.64822865 -60.04321289 3.29432511 199 199 206
-76.29567719 2.12987804 3.13464022 170 170 178
3.49402046 -88.76322937 3.15932941 215 214 220
-88.43800354 -59.90102386 14.05280781 211 211 216
-88.76773071 -47.04124451 3.14307928 208 208 214
33.40325165 -7.10839701 3.30592895 210 210 214
-58.68963623 -99.03742218 3.13374615 172 171 181
15.45912743 77.48480225 20.81836510 217 216 220
7.32058477 -38.71495819 3.25915647 205 205 211
-65.83066559 -42.22088623 3.26290274 205 201 200
-14.66431332 -21.79735565 3.26159549 217 214 213
-41.72352982 7.12404442 3.33412433 200 201 206
17.03244209 67.79530334 24.54229164 200 199 205
15.74194336 -98.71064758 3.12123561 223 223 227
-26.64406586 -94.56746674 3.14562392 172 172 181
14.38973427 78.67164612 20.76314545 210 210 215
7.09357834 -28.25266266 3.29022741 198 199 206
-76.39503479 -85.37504578 3.26496458 180 179 190
-27.05759239 13.88971901 81.95175171 146 146 155
-29.39202118 -52.66969681 3.26614237 219 219 224
15.46341228 0.26549640 3.13878155 216 216 222
-29.79758835 -64.67010498 3.26546693 213 213 216
8.94869804 -16.36954498 3.18759465 179 178 183
20.54321480 -83.56444550 11.52250862 207 205 211
-33.80564117 8.40928555 5.51209307 224 224 229
-41.29905701 -91.47033691 3.27709103 191 192 196
-68.01276398 -66.07715607 3.26468635 176 175 189
19.62186432 62.69706345 23.56565857 164 165 174
-16.97731209 -63.41976547 19.50820160 154 151 165
26.05053711 -83.35693359 11.54370975 187 190 187
10.10715485 -72.79421234 3.26303148 206 206 211
23.20337296 60.71578979 23.61543465 172 173 181
23.07557869 -82.35513306 11.50159073 194 195 196
31.06307983 4.26411915 3.12232733 165 165 173
7.70861864 -50.56957245 3.36453724 203 203 210
11.27017307 -98.47249603 3.14290714 215 215 221
29.09499359 7.12613869 3.26661181 217 217 220
11.23646927 -2.47714114 3.19471645 220 220 225
5.47776222 -88.77745819 3.15044212 216 217 222
14.15676117 -97.48077393 3.14231110 218 218 223
4.47706747 -88.76544189 3.15804267 219 218 224
11.23648930 -95.51316833 3.14308143 221 221 226
14.17760372 -96.50395203 3.13909841 217 217 222
-17.76850510 -14.76881218 3.26259542 214 211 210
11.29068565 -97.46891022 3.14000130 219 219 224
11.23384953 -94.51341248 3.14851475 217 217 222
2.51848626 -88.73441315 3.15445232 220 219 224
1.51546729 -88.76481628 3.15345263 218 218 224
-95.53874969 -14.06112671 3.15366435 218 218 223
5.46661282 85.99786377 3.12805223 213 213 218
14.16475010 -94.51498413 3.14637494 216 217 222
-53.55667496 -64.12787628 3.23123837 197 198 203
20.53348160 -82.21141052 11.50998878 214 213 219
-18.23319244 -31.95374680 21.85934830 188 188 198
-17.81546021 3.57937694 3.17817640 156 156 168
20.02706718 -83.83216095 11.50849533 200 202 201
-85.91829681 -48.01422882 3.14642906 217 216 222
13.60036469 -70.77571869 11.51929379 210 210 213
29.37360001 -84.88181305 12.20603085 215 215 221
-57.11770630 -76.95043945 10.75479126 203 202 207
0.16461492 -80.18836975 3.15253401 186 183 160
7.08874750 -24.73304939 3.22582650 205 205 211
-28.16842842 -63.90294266 3.25106716 186 187 193
7.54386711 88.41336823 3.26111293 193 193 199
-25.24605751 7.12144375 3.26762366 203 203 209
-76.89404297 -92.89536285 3.22673440 214 214 217
-56.12352753 -66.82669830 3.26139212 194 194 203
-15.42159557 -3.62626815 3.14437938 180 180 187
22.04600716 -31.52016449 23.95251083 203 201 209
9.50500774 -57.17166519 3.27245045 189 188 200
21.56188393 -79.77848053 11.51226425 187 190 183
8.62487984 -28.32938004 5.51110935 227 226 231
-39.89642715 -17.55965424 3.35185838 192 184 177
7.17299604 -80.33953094 3.31086206 203 203 210
18.08638763 -83.59967041 11.59052277 208 208 214
17.81839943 -23.73006630 23.96424484 200 202 201
-36.02092743 -77.03089142 3.25754809 182 183 188
23.08672142 -80.94467926 11.52234077 184 185 185
8.64024925 -27.29244423 5.53504610 225 225 229
-65.83239746 -7.16269970 3.28457236 203 202 206
-13.10035706 -11.66343594 3.26985073 207 203 201
-98.44245911 -89.13187408 8.49558640 76 83 103
23.46046257 71.33525848 21.16680336 22 24 38
-16.46121216 -67.40226746 43.12511444 209 207 211
22.11943245 -31.92364311 24.91055679 108 106 112
7.67525959 -70.72899628 3.42701006 141 140 154
19.40034485 -26.20592880 23.95500755 148 151 146
27.16499138 -81.84043121 11.51779747 154 159 153
30.38831329 -88.25630188 11.51521587 153 158 154
24.87510109 -85.97536469 12.06974792 102 104 114
-71.21069336 7.69991922 3.24094462 135 135 149
23.13742447 -23.80437469 23.95636177 171 174 170
20.12914658 -46.68210220 10.56378651 199 197 204
14.81844139 50.92029572 20.57519341 131 132 147
11.28090191 -59.48694229 6.81430769 139 138 144
30.39395905 -81.82276154 11.52105999 169 173 171
20.94229507 -23.25481796 23.95224571 158 161 155
-32.82919312 -37.12697220 22.06844139 173 172 178
10.36834908 -45.64128876 3.26449847 185 185 190
20.99401474 -78.37003326 11.49436283 144 152 131
-19.69682121 -66.32152557 43.12658691 196 193 199
-34.73809052 -66.19569397 14.46501923 84 78 79
21.86872101 -84.07271576 11.74653721 91 97 118
6.42062807 -99.87870789 3.13701630 166 168 177
28.06374741 -84.09566498 11.67488098 98 102 122
21.67935562 37.16444778 23.54935837 159 159 161
24.76507950 -84.05192566 11.72646904 91 98 119
-13.45718288 82.63956451 3.58567524 149 106 74
22.65273285 -73.06361389 11.52077579 161 163 166
8.10648823 -32.27991867 3.84170580 145 152 172
30.44150925 -81.10694122 11.52821350 139 145 132
-43.33625031 -75.67103577 3.26247573 158 160 163
-42.96663666 -85.86330414 3.26540446 182 183 188
23.85056114 -26.22039604 23.95567513 153 158 149
18.61948776 -84.64599609 11.52573681 164 166 159
17.12001228 -23.19091797 23.95793724 158 160 159
17.03920746 -99.16658020 3.13172626 144 145 154
-87.11856842 -77.67337799 7.16833782 99 99 107
19.35700417 -81.79586792 11.51907539 151 158 149
23.23160553 -86.86672974 11.51555061 127 132 123
8.81166553 90.10926056 3.26741600 126 126 140
27.16633797 -80.35588074 11.51437092 143 150 136
18.00987434 -24.50698853 23.95513725 140 142 135
16.23276901 -96.25740051 3.14429998 148 149 157
12.31001568 -34.65731430 3.46446848 127 122 130
29.33108521 -5.46604061 3.13288617 160 160 169
15.65404987 -23.15373611 23.95575142 152 156 151
9.67059135 -98.72356415 3.15951610 144 143 154
6.47011471 -59.34596634 3.14913201 147 147 156
-46.60908127 -15.85365868 3.16132045 166 166 174
-34.55810928 -6.78763580 3.15386343 139 138 146
-13.50176430 -65.37815857 43.02477646 190 188 196
10.74498177 -99.71501923 3.13532948 157 158 167
20.12131691 -25.32097626 23.95378113 146 151 135
-29.02840233 13.25283241 81.94338226 121 121 129
-29.34045601 -94.50691986 3.13603973 153 153 162
12.47965717 3.02605891 3.15176272 164 164 172
19.93027115 70.66696930 20.78873825 106 103 115
24.29590988 70.67499542 20.78097343 125 124 135
5.98239326 -87.59393311 3.13360310 157 156 165
23.89614868 6.37254477 3.18661237 166 166 174
0.10758437 -96.52891541 3.13783264 138 139 148
-53.38230515 -20.45466805 3.18329692 146 146 153
19.32114792 -71.08425903 11.51792240 155 160 150
6.77846289 -47.36730576 3.14524102 145 145 153
26.25663757 -87.49610901 11.51560879 165 167 166
21.21013832 -31.03853226 23.95209885 170 174 163
19.03038216 36.31027222 20.93187332 55 53 61
23.12972832 -84.11022186 11.45082569 86 92 114
27.12459373 -83.96038055 11.51728153 173 176 171
0.01525764 -87.22515106 3.14371610 157 158 166
14.87762547 -99.36152649 3.12869215 160 161 170
7.32397938 -48.67395401 3.26343822 164 165 170
-66.96562958 -82.09533691 10.75791836 159 163 145
22.48310280 6.48841000 3.14405513 151 151 158
-8.06130505 -13.19423866 3.64676929 139 134 131
-0.33493975 -67.86585999 3.12025928 144 144 152
13.22345829 -98.97345734 3.13775706 158 158 167
23.22974014 -88.35463715 11.51869488 171 174 173
-35.69664764 -73.65605927 5.16961050 40 72 49
6.90434551 -75.57919312 3.15406203 155 156 166
-20.65095520 -63.38685989 27.21445847 131 115 103
11.25729179 -43.86501312 3.24721074 173 172 180
12.32544231 -38.82925034 7.07563019 136 133 139
25.90221024 6.47945404 3.14131427 157 157 165
-0.30012682 -97.67708588 3.15362668 160 159 169
20.05612755 -23.18009949 23.95671844 151 154 150
-6.83638716 -67.62551880 3.16380262 146 146 155
21.19994354 -24.54907227 23.95566559 180 183 175
-13.70152760 92.37378693 3.24072099 141 140 145
7.27640247 -32.11536789 3.25442433 180 181 188
21.73771095 -71.04938507 11.51811600 146 154 133
12.27613735 -55.19507599 6.07690001 78 75 84
21.19030571 43.52313232 25.05300713 166 165 181
0.29876670 -99.84989166 3.12801552 169 170 180
1.04982388 -86.78841400 3.14576364 159 158 167
3.31374788 -74.21639252 3.14394832 149 149 158
11.95064926 -71.91390228 3.26583004 157 158 169
2.02355051 -87.67564392 3.13233376 169 169 178
-53.02368164 41.75009537 3.20276928 132 133 141
18.61134338 36.35034943 11.72430706 50 45 54
26.24420357 -81.78874207 11.51750946 153 157 155
17.12922859 6.07695866 3.24668598 159 159 167
17.07991028 -82.08782959 11.52327633 141 149 131
27.92331505 -86.85161591 11.51669502 164 166 162
-38.35513306 -39.46879196 22.15073967 176 175 177
