90.08074188 160.26054382 19.48943901 102 96 103
86.21208191 160.25947571 19.77231789 113 110 119
92.89413452 160.25454712 14.38574505 171 167 176
87.62801361 160.11514282 17.87846947 167 165 173
87.61471558 160.26783752 19.44146156 108 107 113
90.53378296 187.54510498 0.63215876 166 169 178
90.47903442 183.90003967 0.64538831 151 151 172
90.42616272 191.03155518 0.66375124 157 159 178
90.33608246 188.00520325 0.68639910 161 162 174
89.96068573 187.56575012 0.67192847 181 182 195
89.89406586 183.90408325 0.64348441 140 140 161
89.37959290 189.67555237 0.81356758 181 177 187
88.97843933 191.06182861 0.62962741 151 154 172
88.77020264 187.21681213 0.62901694 165 164 184
88.63433075 183.38829041 0.63517118 153 153 173
88.62297821 191.03047180 0.64629251 155 156 176
88.57741547 187.46815491 0.64814651 162 163 182
88.20953369 187.24371338 0.64636606 159 162 178
88.18965149 184.73153687 0.64646816 167 167 184
88.18132019 183.74237061 0.64869267 151 152 172
88.18575287 183.33723450 0.64995307 147 148 167
88.17966461 189.13059998 0.64791101 165 166 185
87.93127441 190.24679565 0.67656595 133 133 154
87.92180634 189.30468750 0.66630661 150 147 168
87.94078064 188.50729370 0.63872832 137 136 157
87.92610168 188.24768066 0.64324671 158 158 178
87.93009186 187.51348877 0.65477908 140 141 158
87.93409729 186.34979248 0.64966524 153 152 171
87.93888092 182.65914917 0.65181434 120 119 140
87.94380188 182.36103821 0.64796782 153 151 173
87.88565826 189.62724304 0.69027078 192 187 193
87.92133331 183.45414734 0.64305013 146 146 167
87.85994720 190.44143677 0.63644195 179 180 197
87.64019775 187.19754028 0.64109987 164 164 184
87.55835724 183.43324280 0.66503537 153 154 173
87.41648102 187.55383301 0.62884736 152 152 172
87.00667572 183.77386475 0.66902679 169 170 188
86.98627472 189.66915894 0.84961724 187 184 191
86.75516510 188.19522095 0.64352304 165 165 184
86.62906647 189.64096069 0.73189032 193 189 196
86.63554382 182.36561584 0.64308625 174 177 187
85.96325684 187.25054932 0.64034373 162 165 179
84.38995361 188.67680359 0.70189971 187 184 190
84.37570190 189.20559692 0.70411682 184 182 192
84.35298157 187.04940796 0.73087800 184 181 189
84.07584381 184.92735291 0.64233834 170 171 189
84.01409149 191.07270813 0.62421536 158 159 179
83.46932220 191.04960632 0.63444465 174 177 188
82.66699219 185.90617371 0.63477796 162 162 181
82.29206085 191.07530212 0.68058193 156 150 162
81.93285370 184.96049500 0.55734187 132 125 135
81.92930603 184.67419434 0.52655518 134 125 134
81.93891907 184.34834290 0.51150835 142 132 140
90.64382172 177.44410706 0.52466077 135 128 137
90.44725800 179.70367432 0.65413529 159 159 177
90.46019745 177.43791199 0.53496742 129 117 125
90.17876434 179.67051697 0.63957912 152 152 169
90.11020660 179.96166992 0.59088159 180 181 196
89.97344208 180.03810120 0.73174435 174 174 190
89.89214325 180.77516174 0.64246571 162 162 182
88.86496735 177.74273682 0.64177471 145 137 148
88.56563568 177.78639221 0.63669264 148 141 152
88.26487732 179.99388123 0.63580722 169 170 188
88.18029785 181.54560852 0.63501531 165 166 184
88.02480316 177.41839600 0.50014979 132 110 112
87.92550659 180.66239929 0.65398830 161 161 180
87.95005798 179.95277405 0.64203918 143 143 163
87.91665649 181.71365356 0.64253163 164 163 182
87.58923340 179.95272827 0.64039481 141 142 162
87.52695465 179.09922791 0.64906454 162 157 173
87.44933319 177.76194763 0.63307816 143 136 147
87.41729736 181.54296875 0.65137565 160 161 180
87.08682251 177.46366882 0.53739244 132 124 135
86.84171295 177.42759705 0.49512175 133 122 132
85.95048523 181.52087402 0.64627993 170 172 185
85.70546722 177.79687500 0.65353680 145 137 148
84.35150146 181.20027161 0.73358738 167 163 174
84.35326385 179.96667480 0.71786284 167 162 174
84.35855103 178.54548645 0.63692260 162 162 179
84.08971405 180.00891113 0.65021795 147 147 163
83.57057190 180.18685913 0.64176279 162 162 181
83.04682922 179.86326599 0.63582557 161 161 179
82.62477875 180.19633484 0.64278013 156 156 176
81.96430206 179.26899719 0.53823113 137 116 119
81.94115448 179.75691223 0.51569992 125 121 130
81.94214630 179.53398132 0.51008964 125 120 129
81.92783356 177.42419434 0.39745167 41 42 60
81.66700745 173.54051208 0.40199780 31 31 44
90.16059113 166.09176636 0.63610113 153 153 173
88.28134918 167.57362366 0.65487617 145 145 157
87.81584167 165.80191040 0.62666756 154 154 173
86.62998962 164.76918030 0.64621115 161 161 179
86.34092712 164.85757446 0.64955729 141 140 162
86.32274628 164.56237793 0.64109534 138 139 156
86.18560791 165.79103088 0.64511293 157 157 177
86.01632690 166.25088501 0.63620961 155 155 170
84.68444824 167.51521301 0.63948244 158 158 177
84.47328186 165.80892944 0.63334572 142 140 161
84.44406128 166.09938049 0.64838791 153 153 173
84.35754395 164.25912476 0.63541156 151 151 169
84.33288574 167.11201477 0.63517845 158 159 174
84.08361053 166.01927185 0.60374218 155 155 175
84.03245544 166.36878967 0.62260896 157 156 177
83.99582672 163.62062073 0.64341676 150 150 168
83.32845306 166.00695801 0.62315452 166 165 184
82.78598785 166.70355225 0.55845267 158 157 178
82.53795624 165.96060181 0.63114905 161 161 180
81.90689087 165.02633667 0.50891674 136 129 139
86.34884644 160.35505676 0.63880163 131 130 152
86.32921600 162.47842407 0.64401233 125 127 145
85.38500214 156.82949829 0.64469481 149 150 165
84.34388733 155.25990295 0.65178990 150 151 169
84.08299255 154.51513672 0.68055207 138 139 157
84.07200623 156.07495117 0.63569117 143 143 164
83.99232483 160.19017029 0.67269921 153 153 172
84.00907898 157.47177124 0.66497380 143 143 161
83.50357819 157.24490356 0.64587736 154 155 174
82.98851013 157.57899475 0.62402785 149 149 165
82.20734406 157.63853455 0.63777345 136 128 139
82.21477509 154.60218811 0.63741720 143 135 146
86.31092072 148.92677307 0.60725296 142 141 161
86.20191956 147.82994080 0.67398560 156 156 175
86.07272339 145.26368713 0.64517695 160 160 179
81.66846466 144.04234314 0.40120423 33 32 44
84.34333801 150.74644470 0.65164644 146 148 167
84.35691833 145.85768127 0.64635068 161 161 180
84.08733368 147.88322449 0.65736300 165 165 183
73.73573303 188.46759033 0.39823678 37 37 58
72.40826416 184.37699890 0.65828907 141 133 143
72.38463593 182.95086670 0.64360261 153 145 156
72.04992676 184.86363220 0.64566040 167 168 186
71.27109528 191.04089355 0.62741888 160 163 175
67.07415009 189.14903259 18.04816055 198 198 207
70.58570862 185.66639709 0.63731945 154 154 173
70.53297424 186.94415283 0.64337969 150 150 171
72.35358429 181.21467590 0.65124053 144 136 148
72.49864960 164.98056030 0.65379047 147 139 151
72.10866547 166.31024170 0.58601534 157 156 173
70.59886169 163.58331299 0.64186287 150 150 171
72.48632813 157.31837463 0.63728142 141 134 143
72.44972992 162.25105286 0.64388770 130 122 133
72.14161682 158.32304382 0.63803148 168 169 187
72.14916992 153.34712219 0.65087557 143 143 158
71.57427979 156.21447754 0.64747882 155 156 176
71.14173889 160.30816650 0.64412278 158 157 178
70.60829926 157.32518005 0.64813614 168 168 187
70.54597473 162.20556641 0.63686281 143 142 163
70.56754303 156.72457886 0.65866542 162 163 181
70.34147644 157.52439880 0.64288956 134 134 152
70.33896637 153.68629456 0.63002294 146 145 166
67.08371735 157.99676514 18.64499474 84 81 85
66.81491852 157.97251892 18.64245033 186 182 188
69.46660614 162.87493896 0.62711841 170 169 182
66.73231506 161.29769897 18.64207458 177 173 179
66.66090393 159.80598450 18.64354897 171 166 173
70.27957153 186.26754761 0.64256203 159 159 179
66.29840851 191.05545044 0.67918813 130 131 151
61.80847549 189.48971558 0.69721335 166 166 180
65.69923401 186.28842163 19.40391159 191 187 197
65.68112946 188.11676025 18.69976616 198 194 204
65.61725616 182.15531921 18.24159431 191 187 198
63.57105255 184.06321716 24.90160179 118 128 155
60.41525269 181.86328125 18.36410904 116 116 134
70.27306366 163.40074158 0.64340883 163 164 183
68.40837860 165.74389648 0.63922036 165 164 183
68.24134064 163.68717957 0.63906765 145 147 165
68.17542267 163.75355530 0.63671941 144 145 164
68.07468414 166.11227417 0.63746208 154 154 174
67.96025085 163.47583008 0.63985527 129 129 150
67.89268494 165.79356384 0.65273130 165 165 184
66.69228363 166.05952454 0.64454579 143 142 164
65.89172363 167.64729309 0.64321393 166 167 185
65.90653992 165.68807983 0.63895249 156 155 176
65.89202118 163.25428772 0.70679271 150 149 166
65.81655121 163.87414551 0.63811934 160 160 180
63.91823578 165.75395203 0.63809258 163 162 181
63.51207733 164.55616760 0.68849295 157 158 170
62.68388367 164.56939697 0.63828290 162 163 174
62.11631012 164.55734253 0.68864191 164 165 183
62.01035690 165.84930420 0.63503081 137 138 155
61.81554794 166.11715698 0.65238887 169 170 188
61.66272354 164.50575256 1.22160757 177 173 177
61.33477783 164.68432617 0.69995552 159 161 173
60.73615265 166.09184265 0.63745552 155 154 175
61.29163742 164.35092163 5.57935953 176 176 190
64.36794281 164.40016174 14.98625469 133 130 144
60.10963821 164.52413940 11.86433029 212 212 222
59.63092804 164.57867432 14.99547386 178 173 184
59.60834503 164.36169434 15.16005516 149 150 166
60.43855667 164.59967041 14.54262447 138 131 146
60.11154175 164.59040833 14.51820278 140 126 135
62.61021042 164.55242920 14.96351528 171 166 178
63.65784836 164.54486084 11.39525127 136 127 138
64.35506439 164.39147949 5.32363796 178 173 184
66.89302826 161.13047791 14.53135777 132 124 136
60.78181839 164.56837463 5.30147648 180 175 186
70.18539429 152.40538025 0.64060414 155 155 175
65.79645538 159.21963501 18.64027214 165 161 168
64.48284912 159.81141663 18.63641548 170 167 173
64.38238525 163.40774536 18.64262009 179 175 181
64.14008331 157.70901489 18.65182304 178 174 180
62.72379303 161.05123901 18.88864517 108 96 117
62.73564911 157.70486450 18.65455246 178 174 180
62.62999725 164.71145630 18.65600014 177 174 180
62.62616730 161.10333252 18.64620209 182 178 182
62.51390839 163.95463562 18.64258194 162 156 166
62.41388702 161.10731506 18.65143967 172 167 174
61.60033035 161.06854248 19.46567917 127 103 108
61.42482758 161.09556580 18.64193535 173 168 174
60.90531921 161.09237671 18.63688469 168 164 168
60.33875275 163.96238708 18.64046669 164 158 168
60.21131134 161.04220581 18.88032150 110 98 119
59.86370087 161.12829590 18.64042282 170 166 172
59.83211899 157.97901917 18.64846420 178 174 180
59.65362930 161.10473633 18.64056206 173 169 174
58.77240753 157.73034668 18.68619537 178 174 182
60.03940582 190.97477722 0.64566755 149 150 169
57.33869171 189.51939392 0.70719105 181 178 190
53.98321915 190.98611450 0.66766649 166 167 186
52.29703903 137.02969360 0.64576387 163 163 182
57.48685455 181.98817444 18.41312218 86 86 104
52.42846298 177.14076233 0.41405547 54 53 73
52.36904144 179.59600830 0.66672671 165 166 184
59.76670456 167.64631653 0.63946420 169 169 187
59.74097824 165.80612183 0.64728695 141 141 159
57.02456665 182.63693237 23.37430382 158 145 140
58.17487335 165.85450745 0.64112264 156 155 175
56.89250183 165.69699097 0.64555407 151 151 171
56.85152054 164.42016602 0.66880536 152 153 164
56.69328308 167.66127014 0.67011094 171 172 189
56.51971817 164.25804138 0.86507130 157 151 162
56.36546707 164.24713135 0.84048188 159 153 165
55.82686615 166.14205933 0.64575714 150 150 170
54.48957062 168.30899048 0.51834524 128 121 130
53.67963409 165.85910034 0.65555650 158 157 176
53.63970947 167.64248657 0.63545817 171 171 189
57.04877472 164.51402283 8.58947468 191 196 206
51.25994110 163.06727600 8.94117355 140 134 148
57.48765945 157.84683228 18.63783264 167 163 169
57.32996750 162.04562378 18.63939285 181 177 183
56.24822235 163.90249634 18.64310837 168 162 175
56.00825882 164.64286804 18.65027046 176 171 177
55.76815414 164.69569397 18.66509438 169 164 170
55.74411392 161.02709961 18.64163589 173 168 173
54.65158463 163.88012695 18.63832474 164 158 167
54.53745651 164.64178467 18.65413666 187 184 191
54.54103470 161.03219604 18.64738274 183 179 184
54.49799347 157.89559937 18.64462090 185 181 187
54.44242859 160.98504639 18.89750862 102 94 114
53.18237305 162.04582214 18.64311218 177 173 179
52.68592834 163.88769531 18.63919640 173 169 178
15.15792656 188.47430420 0.40560675 29 29 47
13.10227585 186.90782166 0.64470774 133 131 149
6.18824530 177.81300354 0.63091642 158 151 162
5.71073484 179.97676086 0.64181328 182 182 195
5.51968956 179.67230225 0.64523536 151 151 170
1.13929558 165.81983948 0.63254571 147 148 164
8.30150795 155.97871399 11.05557632 190 186 191
7.93314648 153.12139893 11.05292225 183 179 184
92.16369629 184.40092468 0.70517004 155 155 175
92.08592224 182.30184937 0.69419026 164 163 184
92.02841949 189.65122986 0.76314259 179 175 185
93.57758331 165.54823303 0.65634322 163 163 182
91.61028290 168.60153198 0.40523142 53 54 73
91.33938599 165.59390259 0.64799231 164 165 184
91.33274841 161.05001831 0.64716750 163 163 182
92.57614899 160.27146912 11.66863251 166 161 170
86.42605591 160.29911804 19.35171509 111 111 123
90.10085297 191.01905823 0.65552098 161 163 178
88.26746368 188.56578064 0.66240519 176 176 194
86.24063110 187.11264038 0.67819738 167 167 186
85.27719879 191.01557922 0.65752834 159 160 173
90.38645172 178.15591431 0.63403481 159 159 179
86.76599884 165.54861450 0.64580196 168 168 187
86.53166199 166.12692261 0.64600551 169 169 188
84.44038391 165.53665161 0.63612014 155 155 175
83.99287415 164.41329956 0.64836812 163 163 182
83.14391327 165.59646606 0.67517281 158 157 177
86.76716614 161.05133057 0.65066725 160 160 180
83.99106598 155.20671082 0.62387520 161 161 181
70.57010651 167.18162537 0.70430195 159 159 178
70.64342499 161.34544373 0.64537066 166 166 185
70.66310120 155.21946716 0.63829023 164 164 184
67.01038361 158.58283997 18.63829613 182 178 185
66.97318268 159.58067322 18.63046646 179 172 181
68.69598389 190.94924927 0.64889234 152 153 173
66.01065826 182.20335388 18.24948502 192 188 199
68.38240814 163.28697205 0.63860333 170 170 187
67.83022308 167.59407043 0.63539827 162 161 181
67.77352905 163.89633179 0.64125192 167 167 184
62.88642120 182.79992676 24.65343475 98 110 139
65.83178711 166.15631104 0.64099884 168 168 187
59.78492737 164.31503296 15.31372356 163 163 178
65.24129486 158.40087891 19.09958458 197 195 205
63.31588745 164.68106079 18.65150833 179 175 182
62.20666885 164.68519592 18.65156174 177 173 179
61.15084076 164.72111511 18.63853455 173 169 176
60.45963287 158.37742615 19.06749535 197 195 205
52.26808167 190.92025757 0.61641371 155 156 176
55.03554535 182.61277771 18.03767014 188 182 194
59.70832443 166.17460632 0.64127576 169 169 188
57.66749954 164.47070313 0.62607676 160 160 177
56.51429367 164.51591492 0.64573652 159 160 179
53.68159103 164.67671204 0.72464669 168 169 186
53.57207489 166.18946838 0.65147078 169 170 188
57.34494781 164.52511597 11.38351727 149 150 166
54.90729523 164.47889709 15.00954247 185 179 192
56.70739365 158.32702637 19.08884621 196 196 206
55.32970810 161.08645630 18.63600731 166 161 171
54.91030121 161.08242798 18.65434456 169 166 172
9.48372364 185.57896423 18.59405899 193 190 196
6.72178698 165.53468323 0.69669878 153 153 173
92.36533356 182.79255676 0.67256701 174 174 192
91.40326691 184.40243530 0.64583516 161 160 180
93.00005341 162.12940979 0.66187495 164 165 184
87.58773804 190.65818787 0.63856363 167 168 185
86.50966644 160.19818115 1.25039876 172 168 177
63.38162994 164.50701904 2.04782581 184 177 182
60.89389801 164.53752136 2.67226338 161 168 179
59.89110184 164.51687622 12.04964924 217 217 227
62.58590317 164.58583069 18.63380623 173 169 174
60.98889542 161.24006653 18.68198204 161 157 162
59.22592163 164.41795349 1.85246646 190 185 193
58.20233154 164.71598816 0.60726637 175 176 191
55.23388672 164.47381592 2.08596134 170 163 159
57.50338364 160.44192505 18.85390854 176 173 179
13.48732948 186.15867615 0.58724612 137 135 145
9.10770702 161.57655334 16.92259789 172 167 178
92.32495117 165.04881287 0.61281574 166 169 180
89.42797089 178.35792542 0.62548506 168 168 187
89.75680542 162.96481323 0.65313047 161 163 176
87.81243896 165.07583618 0.64622635 164 166 178
86.61955261 167.27684021 0.60394096 168 168 186
23.92374992 104.55800629 0.62715626 167 167 185
82.85099030 152.07914734 0.56677210 165 166 184
67.35710144 164.98779297 0.64625728 158 160 174
58.06490707 182.91566467 23.79720688 181 166 159
62.78525543 183.31811523 23.89459038 74 85 110
93.29920959 188.74626160 6.56719112 126 132 148
91.92249298 188.94927979 0.64762998 113 113 134
91.91142273 190.92344666 0.64604813 120 123 143
91.89137268 190.14912415 0.64265561 121 121 143
91.91011047 188.27372742 0.64350110 122 123 144
91.88972473 184.42140198 0.65749002 105 104 125
91.89599609 184.06822205 0.63255006 109 109 130
91.88742828 183.89369202 0.64424443 104 104 125
91.90024567 183.59109497 0.64298105 98 100 119
91.91004181 183.34950256 0.64728296 109 111 131
91.88976288 182.56538391 0.64625084 120 121 142
91.49289703 182.23780823 0.64604819 139 139 161
91.48852539 189.80891418 0.64505994 145 144 166
94.35851288 177.27023315 0.43154696 50 51 68
93.55648041 177.28063965 0.43870926 47 48 62
91.92771912 181.36576843 0.62870455 113 111 132
91.90901184 180.86735535 0.63611394 132 131 153
91.90777588 180.68942261 0.65321195 121 121 142
91.61580658 177.28550720 0.42815638 30 30 39
91.36001587 177.27502441 0.45895737 25 25 33
95.08680725 167.69714355 0.62755269 143 140 155
93.19733429 168.34725952 0.50228435 20 21 36
93.11270142 169.13479614 0.38326055 19 19 34
91.65468597 168.30152893 0.41079727 9 7 16
90.83287811 168.28930664 0.39646715 18 17 30
95.06307983 160.25404358 9.72091103 172 170 178
95.09375000 160.22111511 5.12662888 182 181 190
94.97728729 160.32785034 0.66846824 137 137 158
91.13716888 160.18171692 6.55840063 163 158 167
93.57733154 160.36433411 0.64615482 131 132 152
88.02411652 160.19351196 10.69835377 156 151 159
91.11927032 160.20463562 2.03519392 164 159 168
91.45293427 160.31857300 0.66378486 145 145 164
92.12287140 160.28495789 14.80185986 67 61 78
92.98828888 160.29408264 12.29661369 74 66 78
92.15455627 160.27000427 16.93627357 84 76 88
90.23010254 160.25964355 19.34905052 35 35 40
92.98924255 160.28500366 11.12286377 94 94 105
89.94919586 160.27185059 18.33095551 77 70 75
86.68547058 160.25468445 18.82913971 62 55 59
87.69815063 160.29336548 18.33573723 87 79 85
87.39912415 160.23448181 20.21798325 79 73 81
90.53409576 190.81089783 0.64199620 145 146 166
90.53614807 183.22892761 0.64586103 133 133 155
89.28102112 184.52995300 0.64052474 146 148 160
88.04504395 190.85090637 0.62868959 101 102 119
88.06674957 187.37040710 0.64079988 79 80 100
88.05816650 184.88003540 0.64796567 87 87 104
88.04053497 183.58204651 0.64291257 95 94 116
88.04465485 183.27954102 0.63003826 91 91 108
87.51628113 189.78746033 0.62237144 165 164 184
87.29002380 188.19223022 0.66704249 142 129 141
87.21222687 187.06111145 0.64475781 144 144 166
86.86429596 186.42794800 0.64278018 135 137 151
85.62934875 185.12153625 0.64414334 136 136 157
84.21287537 187.33499146 0.64668310 159 158 175
84.17750549 189.16256714 0.63547909 140 140 159
83.95584869 185.50981140 0.64578837 140 115 119
82.53054047 188.62739563 0.66292095 142 129 141
81.79137421 186.03913879 0.42085576 10 9 16
81.79539490 185.71513367 0.44259086 9 10 20
81.77720642 185.42803955 0.43120268 23 21 30
81.73770905 189.65557861 0.43043420 25 24 34
81.74603271 188.77444458 0.47578490 17 18 27
81.31771088 182.75646973 0.45569593 9 9 18
81.04969788 182.26911926 0.37942049 6 5 12
90.63727570 177.26112366 0.41572845 38 38 50
90.27188873 179.81517029 0.64642596 125 125 138
90.04729462 179.80686951 0.64189458 119 121 135
89.98196411 177.28701782 0.52496785 29 29 45
89.60522461 177.26600647 0.49549884 28 27 43
87.63234711 180.66040039 0.65793097 140 141 161
85.81636047 177.56771851 0.51592636 115 93 89
85.03278351 177.27044678 0.43953523 32 31 41
84.53071594 177.26513672 0.41575801 42 43 56
84.23101807 180.84982300 0.61627126 145 144 160
83.82979584 179.33132935 0.60825402 149 148 170
83.72934723 177.33898926 0.43123341 36 34 48
22.81560707 122.17374420 0.40407339 17 16 28
81.81922913 177.02920532 0.41213706 8 8 14
81.77567291 179.42289734 0.49731469 5 4 9
81.80538940 177.29597473 0.39792001 5 3 8
22.79282379 180.56398010 0.40608436 28 27 34
81.77050781 180.13816833 0.44908267 38 36 53
81.74730682 178.64442444 0.40135637 0 0 0
90.24800110 165.95451355 0.64433616 126 126 140
90.05673981 165.95892334 0.64199072 121 122 137
89.99678040 168.28375244 0.40174037 21 18 33
89.71182251 168.33166504 0.43221942 23 23 39
88.94006348 168.25955200 0.36039454 14 13 27
88.42897797 168.32876587 0.39013028 20 20 33
88.17078400 168.31408691 0.44729614 18 19 30
86.98973846 168.32986450 0.45879200 16 17 29
85.47992706 168.32971191 0.43367788 12 11 21
84.32427216 165.96025085 0.63745379 120 121 137
84.18637848 163.73982239 0.66602641 114 115 130
83.78678131 166.33421326 0.60745066 152 151 172
82.92471313 165.84255981 0.64558184 127 126 144
81.96959686 171.32406616 0.38155910 1 0 1
81.76908875 163.87292480 0.41869467 8 6 10
90.40881348 160.30752563 0.64918190 134 134 155
89.21329498 160.30810547 0.64836144 132 130 152
84.21128845 161.51335144 0.64739883 120 121 140
84.21855164 155.36433411 0.62975287 122 124 135
84.16940308 157.36412048 0.63677031 106 105 123
84.16316223 157.59857178 0.63956052 117 119 134
82.40572357 162.38113403 0.63892257 128 123 137
81.78411865 126.43096924 0.42134649 13 11 17
81.77473450 149.14677429 0.43404552 29 27 30
84.17453003 145.32514954 0.62595499 106 107 123
73.20401764 185.33216858 0.38669634 3 1 6
70.44749451 185.75622559 0.64282930 124 124 137
70.45447540 185.56033325 0.65252966 130 131 147
73.40972900 179.21337891 0.38639587 8 7 16
82.45346832 14.00099277 0.56252682 3 2 5
72.24984741 171.63871765 0.39248803 2 2 2
72.12882996 171.33732605 0.39397779 0 0 0
70.44283295 163.74169922 0.63381177 117 119 133
70.44712067 163.48214722 0.64556688 118 118 133
13.94693184 37.16217422 0.42134374 6 5 11
70.47406769 157.55679321 0.65017182 124 123 139
70.45771790 157.36653137 0.63553977 123 121 139
70.35759735 161.25256348 0.63801116 139 139 160
72.99089813 148.54272461 0.39337778 4 4 10
72.94877625 149.17359924 0.41137949 2 1 4
71.73157501 147.97822571 0.63978142 128 129 149
70.49153137 151.48664856 0.64223313 117 118 134
70.33475494 152.25437927 0.65167850 133 135 154
66.35410309 181.87124634 18.40398788 29 29 46
65.77651215 182.05657959 18.30721283 114 109 117
68.22914124 165.96026611 0.64693284 118 119 134
68.06405640 163.57458496 0.62971300 112 113 133
67.96796417 165.96160889 0.64757842 115 114 131
62.28226852 183.84735107 24.95972633 119 123 145
65.74052429 165.87159729 0.64350134 130 131 151
63.73273849 169.68487549 0.40246913 24 23 38
62.61429977 164.49079895 0.79201955 143 138 141
62.03945160 165.97711182 0.63717794 117 117 133
60.60191345 166.50563049 0.63570696 137 139 157
60.22713470 168.40341187 0.42138138 16 17 28
61.41736221 164.60609436 4.59295988 87 80 93
62.32044983 164.48912048 8.37190628 57 46 51
61.15628052 164.44238281 15.03525639 32 26 32
63.50586700 164.50025940 8.36490154 89 81 86
63.62645721 164.48080444 14.61091900 59 51 54
63.34461212 164.46920776 5.48184395 71 63 70
59.99774551 164.49487305 11.49643612 58 48 54
62.81126022 164.49392700 8.31105232 38 29 32
70.19252777 153.01835632 0.64559275 138 138 159
27.56562805 125.69584656 18.59049606 163 158 162
66.62743378 153.51913452 29.92681503 166 161 166
64.74408722 163.83561707 18.64953995 156 148 161
63.87574005 164.82957458 18.68607903 20 20 29
62.85587311 161.08088684 18.77748299 106 90 100
62.80877304 164.94581604 18.78841209 39 36 55
62.38188934 161.09826660 18.80400085 91 88 103
62.21841049 161.38000488 18.64176559 162 157 161
60.72734833 163.52008057 18.64188385 166 161 165
60.34954834 164.48519897 18.64178848 155 148 159
60.33546448 161.07011414 18.76095963 105 90 101
56.81576920 181.89024353 18.36079788 49 48 66
56.32094574 181.88800049 18.34336662 41 40 58
57.50614166 165.70216370 0.63406754 147 147 168
56.78639603 164.28004456 1.22482824 129 128 134
56.73786163 165.84129333 0.63476515 135 136 156
56.39015579 168.41540527 0.43380111 13 10 17
56.11497116 164.22938538 1.16193473 132 132 139
55.72863388 165.99375916 0.64915210 114 114 128
55.58317566 165.94877625 0.64588684 115 115 126
52.89795685 164.20622253 0.82972711 135 129 137
56.40495300 164.37028503 3.63085938 17 59 138
58.05305099 160.70179749 18.73890114 163 157 168
57.29185486 161.94187927 18.64200020 166 162 166
54.94519043 161.30335999 18.63796425 166 161 165
54.78227615 161.01196289 18.78103828 84 81 98
54.50588608 161.01806641 18.79245758 83 81 97
54.48905182 158.41159058 18.64168358 165 159 169
54.31512451 161.00163269 18.76211929 99 88 101
53.95686340 160.94697571 18.69618797 107 95 107
53.14923859 161.94410706 18.64762115 162 158 162
52.66825485 160.26359558 18.64305496 146 139 150
11.23417854 187.68606567 0.64894611 126 126 147
13.32719326 178.18534851 0.41515338 1 1 3
13.26392841 180.18833923 0.64563334 132 125 137
32.14721680 185.48793030 48.72497177 93 114 143
29.34831047 185.46006775 48.70145798 86 105 137
7.70400810 181.36308289 0.64639354 112 111 133
7.18852043 177.27005005 0.40109664 38 36 46
5.65392208 179.80722046 0.64263999 120 122 137
5.42432356 179.81529236 0.64485151 121 120 136
9.68825912 188.25445557 18.63633728 25 26 34
95.51612854 187.70385742 0.60508907 147 149 169
94.56129456 188.21325684 0.64079624 131 132 153
91.74746704 187.36495972 0.70340717 128 123 133
93.12847137 177.23152161 0.48164344 23 24 40
91.14662170 177.14584351 0.45167613 8 8 18
94.96180725 160.29920959 4.84785175 173 169 179
87.42236328 160.24922180 18.34068108 54 47 49
89.17430878 184.47131348 0.64582121 139 140 160
86.98993683 188.21147156 0.64530283 132 133 154
81.70001984 182.67988586 0.52311844 4 2 6
88.48876953 177.22166443 0.45117673 20 20 33
81.90324402 178.77012634 0.42878148 1 0 3
87.99101257 166.03465271 0.63673478 128 129 149
86.47679901 165.84176636 0.65089095 122 120 142
82.10135651 166.94465637 0.42682573 3 2 6
70.35435486 161.62841797 0.64259988 124 125 143
73.01891327 148.62455750 0.42659771 9 8 17
67.23392487 158.03749084 18.71375275 43 43 61
62.06630325 164.53428650 1.19259393 83 91 112
55.45595932 182.66288757 22.16280174 145 111 79
57.81439209 164.44506836 1.25939953 88 88 107
55.11674881 164.47686768 1.28628993 84 93 113
57.17208862 158.17243958 18.74749756 145 138 151
23.52965736 185.63340759 0.62862784 126 123 139
92.54062653 160.21057129 10.54083157 122 112 132
82.08917999 166.96630859 0.41865316 1 1 4
53.83725739 164.24342346 2.92767453 44 53 67
81.21919250 183.58288574 0.51859558 14 14 25
63.14390182 164.19187927 17.18597221 57 57 73
54.41622925 160.80624390 19.13410568 95 82 97
89.98715973 161.19171143 0.70176315 145 146 161
94.62819672 160.26191711 21.61336136 86 88 101
94.80572510 160.24543762 19.47931480 105 101 109
94.81175232 160.26597595 19.15998268 99 98 106
93.28791809 187.33422852 0.68730497 169 164 176
91.77712250 188.92478943 0.60581458 142 143 163
92.49627686 179.78826904 0.62847579 163 163 183
91.49558258 173.54089355 0.39950809 38 38 55
90.49903107 179.97453308 0.65117753 167 170 180
94.51573944 168.21969604 0.54347235 137 131 142
94.01097870 168.21437073 0.53799224 119 113 124
93.50292969 163.34796143 0.65034986 174 174 193
91.37826538 170.54963684 0.39748117 30 32 48
90.38392639 167.52920532 0.66262513 160 161 180
94.84206390 160.26168823 10.84557629 174 175 185
95.10803986 160.26007080 0.84895617 160 158 169
92.25237274 160.29246521 10.91778564 119 110 129
90.49268341 160.20678711 10.82364082 174 174 185
92.23698425 160.27056885 21.43585014 152 147 156
92.21306610 160.27874756 15.94941330 148 141 160
92.49737549 160.23486328 17.11820412 153 151 159
94.81815338 160.22727966 18.02309036 177 178 186
91.14531708 160.27290344 20.78498650 129 128 134
91.99617004 160.26965332 19.51166153 97 97 103
88.97714996 160.27874756 18.63793373 119 119 131
90.92520905 160.23078918 19.79352188 111 110 120
89.89560699 160.26976013 21.61854744 89 89 101
93.21213531 160.26045227 20.28745270 107 106 121
91.95244598 160.24835205 20.49107933 104 99 106
90.54197693 160.26834106 20.26462936 84 81 92
92.23931122 160.28549194 20.23874664 112 102 121
90.66899872 160.26435852 21.42277527 86 84 98
89.77807617 160.26947021 21.13621521 88 89 105
90.69918060 160.25799561 19.03652763 93 86 92
92.23877716 160.29681396 15.58428860 115 106 123
90.36806488 160.25787354 18.67314720 100 93 100
92.88690948 160.31497192 15.67049408 110 100 119
90.11177826 191.05792236 0.63450134 160 162 180
88.84951782 186.38908386 0.63154590 174 174 191
88.24304962 187.54289246 0.65126717 167 167 187
88.17713928 186.64193726 0.65112954 175 175 193
88.18138123 185.51319885 0.65988940 169 169 188
88.17211914 185.21307373 0.64279479 149 148 170
86.31481171 183.71643066 0.64723140 162 164 177
85.67938232 185.78768921 0.63811189 155 155 175
85.32756042 187.21095276 0.64328629 148 149 169
85.31829834 184.44329834 0.64519578 150 151 168
84.42125702 189.68721008 0.86272091 193 191 198
82.29656982 187.89521790 0.64963579 162 156 168
81.92526245 190.01203918 0.54618949 140 136 146
81.91719055 187.48657227 0.53213656 130 125 134
81.92807007 186.90863037 0.52054882 126 120 130
81.92485809 184.35104370 0.52038532 141 132 139
88.26271820 180.97335815 0.64656264 180 179 197
87.20061493 180.58328247 0.64349979 148 149 169
84.58766174 177.44270325 0.50373644 135 129 139
82.11344910 178.88761902 0.53288132 133 122 131
86.68484497 167.83839417 0.61030567 147 140 152
86.61775208 165.76356506 0.65167922 158 158 177
83.95194244 163.39041138 0.64918560 151 150 169
82.20262146 163.44221497 0.63899690 150 143 153
84.30471039 157.54821777 0.68155164 149 150 169
83.50308990 154.18191528 0.63942248 161 162 181
82.58369446 157.23089600 0.64140850 152 151 172
82.54773712 161.40605164 0.64715201 172 173 191
82.24352264 159.95571899 0.62487501 143 135 147
84.34741211 146.23521423 0.63859588 142 143 162
84.00932312 151.33023071 0.62732035 142 142 162
84.36807251 145.30619812 0.65233290 160 159 180
84.09007263 146.84750366 0.66455692 153 154 172
84.11039734 145.69815063 0.63187897 132 132 146
82.64602661 145.36587524 0.64009476 157 157 177
70.61950684 182.04042053 0.64759570 173 174 191
70.25051880 182.12217712 0.63851804 158 158 178
72.02437592 181.50837708 0.63502008 168 167 186
71.98222351 180.40313721 0.67193788 155 155 175
71.50924683 180.10377502 0.66302168 155 156 174
71.19562531 178.29446411 0.54925036 162 162 182
70.74639130 181.52455139 0.64391607 157 157 171
70.58757019 179.95394897 0.63842434 154 154 173
70.52233887 179.58570862 0.61995023 158 158 178
70.50220490 178.83120728 0.61991245 166 167 185
70.45877075 178.56370544 0.63345182 170 170 189
70.46140289 178.02160645 0.62008977 164 164 183
70.36978912 177.41741943 0.51019901 119 113 121
70.28114319 181.69302368 0.64125466 162 162 181
70.09501648 178.04214478 0.64782041 147 147 164
72.79504395 165.04846191 0.50961506 84 82 89
72.78328705 165.58137512 0.51861292 84 78 86
72.75273895 166.18130493 0.52141088 101 96 104
70.60105896 163.28758240 0.62974513 156 156 174
71.94845581 159.84188843 0.66990566 150 150 170
70.28746796 159.75727844 0.64396310 149 150 168
70.29479980 155.25413513 0.64619064 150 151 169
70.27704620 154.36036682 0.67843479 168 169 187
70.24210358 162.21400452 0.67236203 145 146 166
70.17316437 161.41970825 0.64184541 152 151 172
72.80283356 148.52186584 0.54814613 109 104 112
71.16105652 151.11872864 0.64201850 158 158 177
70.62846375 151.32783508 0.64300036 148 148 168
70.52069855 146.88668823 0.64104879 144 144 165
67.76540375 187.15052795 0.72274220 186 185 194
67.75933075 184.21107483 0.66424584 163 161 173
67.74504852 183.96075439 0.75923955 188 188 197
67.75428009 186.44773865 0.72708523 188 184 194
63.84550476 189.51466370 0.75034624 178 178 191
69.78379059 177.73703003 0.62073958 149 141 152
68.79023743 177.76806641 0.66921204 149 142 153
68.74569702 179.86407471 0.62618041 152 152 171
68.71257019 181.82621765 0.64100057 149 149 170
68.39730072 180.34103394 0.65571278 165 165 184
68.39589691 179.88368225 0.62846142 166 166 185
68.23895264 177.72636414 0.63313323 143 135 147
68.17768860 181.84288025 0.64456427 140 141 157
68.24085236 167.97129822 0.56392485 139 132 143
65.82191467 163.39752197 0.68419677 149 149 169
65.71520996 163.45489502 0.70297176 156 156 176
64.87444305 167.98828125 0.62905294 146 138 150
64.55775452 163.99533081 1.21082771 192 188 195
63.02449417 184.08975220 25.17425919 109 119 143
65.84129333 163.51660156 8.24391460 132 121 131
64.49337006 164.35554504 8.24198341 116 105 118
65.23273468 163.97358704 11.41179657 130 122 134
66.72560120 160.38569641 18.63871574 175 169 177
63.38519287 160.52279663 18.64683914 182 177 183
59.32904053 181.94975281 18.35759544 110 111 129
55.95184326 167.19813538 0.64559859 155 157 170
54.33689880 165.78056335 0.61491287 165 165 184
51.31396484 163.74700928 0.63888460 145 144 166
50.70977020 165.79791260 0.64126599 153 154 171
50.68324280 163.77688599 0.64075738 146 146 167
50.37798309 165.74867249 0.63391197 167 167 186
50.14467239 163.75856018 0.64319813 150 152 169
49.82650757 167.19581604 0.63664645 153 154 167
49.78483582 165.80120850 0.64978868 169 169 188
49.69913483 166.15628052 0.64949524 150 150 169
57.33301926 157.89794922 18.63353729 175 171 177
54.74830246 161.03146362 18.64362526 182 178 183
54.49723053 162.04426575 18.63905907 188 184 189
47.33676529 177.77415466 0.63907266 141 133 144
47.84985733 164.65321350 0.64968997 162 164 176
47.85000229 165.70053101 0.64367443 161 161 181
47.84992981 165.15608215 0.64309520 160 160 174
47.85079956 164.84469604 0.64612257 156 157 176
47.85043716 164.26486206 0.64023501 147 147 165
47.84871292 163.88438416 0.64309943 156 156 176
47.84960938 163.46221924 0.64759964 143 143 162
47.84908295 163.25825500 0.64158571 151 151 170
47.85059357 163.02961731 0.64380199 150 153 167
47.84869003 162.84832764 0.63866395 152 153 165
47.38304520 166.09753418 0.64459997 149 148 168
46.00131607 166.15498352 0.64410502 147 146 166
45.91657639 165.79966736 0.64624214 167 168 186
45.55580139 163.75981140 0.65151167 150 152 169
44.98735046 165.79919434 0.64145792 157 158 174
48.69829178 161.37388611 0.64953953 177 177 195
47.85042191 160.41905212 0.64527684 162 161 176
47.84768295 162.58186340 0.63361382 158 157 177
47.84944153 162.20997620 0.63989741 162 162 181
47.84551620 161.96907043 0.62626833 159 160 178
47.85284424 161.64854431 0.65597701 158 159 178
47.84965897 161.35742188 0.64515704 161 162 178
47.85251236 160.11129761 0.65070981 153 154 173
47.85139084 159.92214966 0.65011781 154 154 169
47.84920120 159.52958679 0.64172488 148 147 168
47.85081482 158.72837830 0.64412415 152 153 172
47.85064697 152.74804688 0.65257424 163 162 182
47.84939575 156.62492371 0.64490980 165 165 182
47.84967422 155.68591309 0.63836831 163 162 176
46.99942398 161.37446594 0.63953239 173 173 192
45.55193329 159.01960754 0.63995606 146 148 166
45.31187439 156.32681274 0.67225707 159 159 177
44.92811966 163.99371338 11.87520599 201 199 207
44.93256760 161.56892395 11.88039112 201 201 208
44.02374649 161.54583740 11.81799507 87 86 108
43.84116745 163.81762695 11.82452297 104 96 104
43.31364059 163.79942322 11.82490444 106 94 105
50.39286423 161.00903320 18.64267540 179 174 180
50.35246658 157.89736938 18.64354134 184 180 186
50.31607056 162.05072021 18.64706612 189 184 191
45.29987335 151.58677673 0.64590043 165 164 182
44.93235016 160.50558472 11.88884640 202 199 207
44.93318558 159.86082458 11.88259029 202 203 210
44.93261719 156.73556519 11.88677788 196 194 204
44.93339157 156.52842712 11.88298512 198 198 206
44.59173965 155.56973267 11.82396412 131 129 143
44.01787949 156.87382507 11.82436562 146 147 166
43.84680176 159.77023315 11.82082939 97 98 109
43.62649918 153.87060547 11.82585716 96 98 103
43.59148788 154.13963318 11.82804871 115 114 118
43.07744980 160.78437805 11.82565784 115 114 136
41.64123917 160.80694580 11.81963158 119 116 140
40.05057144 156.18583679 11.82577610 159 159 171
40.36482620 154.33204651 11.82291508 144 141 158
42.57190323 157.95230103 11.81755924 103 106 112
40.66666031 155.57203674 11.82242870 114 115 135
41.07211685 154.33277893 11.82128429 138 138 158
39.45871735 155.60783386 11.83149624 100 101 109
93.16400909 187.55509949 0.69199467 181 177 189
91.36536407 191.02253723 0.67781001 143 145 165
92.03723907 160.27418518 18.05185890 173 171 179
86.78137970 160.25440979 20.80472946 107 107 121
91.92265320 160.23091125 12.56133175 176 177 185
91.88089752 160.23350525 17.10214806 165 167 175
92.53790283 160.19998169 14.24935627 171 167 176
88.25478363 186.90061951 0.69062340 172 172 190
84.94284058 182.77474976 0.64102238 173 174 192
84.82962036 187.09562683 0.66758209 161 162 180
85.79895782 180.84513855 0.65076655 168 169 187
84.42497253 156.47795105 0.64644223 156 156 176
83.97198486 158.27854919 0.65336764 158 158 178
86.04159546 144.72315979 0.64968109 147 146 167
83.97562408 151.00708008 0.66444510 151 150 171
70.08036041 186.84620667 0.64309382 168 168 187
70.07717133 183.91645813 0.63795769 169 170 188
70.03796387 182.27117920 0.64036274 172 171 190
70.02758026 179.95188904 0.63381529 160 161 180
70.09371185 163.30279541 0.63829112 168 167 187
68.77030945 182.24998474 0.65059930 161 161 178
68.90873718 179.50122070 0.65470445 167 168 186
63.66079330 164.41201782 1.43407929 182 178 186
61.04890060 164.53244019 0.69727635 160 160 180
64.50048828 164.05372620 5.54859161 174 174 187
54.04005432 187.86421204 18.54397011 209 209 217
51.93472672 165.74942017 0.63383424 153 154 174
45.95368958 163.91618347 0.64665449 168 169 185
44.79851913 164.56660461 0.86600214 182 180 188
44.53145599 160.99775696 11.80807781 149 148 169
44.41376495 161.68470764 11.82277107 110 107 130
44.13124847 164.20675659 11.82852268 98 101 129
44.11143875 160.98497009 11.82209110 136 135 157
43.92420197 163.11441040 11.82778835 130 123 131
43.47676849 160.93817139 11.82479191 141 139 162
43.35857391 161.48461914 11.82370472 98 101 119
43.26183319 162.58879089 11.83718395 94 93 110
50.45001602 162.26756287 18.60778427 172 168 173
50.19661331 159.50473022 18.63672066 182 178 184
44.42700195 155.01911926 11.82227707 128 118 130
44.04570007 159.88058472 11.81992626 100 102 121
44.06015015 157.91777039 11.82537746 137 125 139
43.87041092 158.52380371 11.82432556 126 128 136
43.35991669 157.43099976 11.83027172 116 108 115
42.39154434 159.24850464 11.82454491 135 133 156
42.49019241 158.53448486 11.80584431 117 117 139
41.79777527 156.83065796 11.82497025 119 122 139
41.82703400 154.26889038 11.82567120 128 130 139
41.56770706 159.04464722 11.82599545 112 115 122
41.46273804 155.92196655 11.82341194 142 140 163
40.77864456 156.04045105 11.82414722 142 143 163
41.61483383 158.35366821 11.82568264 128 131 140
91.40869904 188.41773987 0.61966145 176 176 194
91.39264679 180.87339783 0.64826512 174 174 192
93.24555969 160.27816772 9.56639004 176 175 183
92.57585144 160.30764771 21.10614586 158 153 162
92.57871246 160.27369690 16.35082245 165 161 170
91.27513123 160.37039185 20.71549988 102 98 106
72.53614807 147.84735107 0.59321564 132 128 138
64.63666534 164.12066650 1.88189864 187 181 187
62.16470337 164.44818115 4.60832691 174 171 179
43.43488693 160.15078735 11.82427406 136 135 157
43.33166885 159.15942383 11.82730389 147 149 159
69.56812286 187.85768127 0.64327687 167 169 180
46.42014313 164.96018982 0.61014760 165 167 183
43.54325104 156.16284180 11.82407951 149 149 170
91.61734772 160.21966553 5.29264545 149 143 148
92.99620819 160.27992249 16.95339012 71 60 72
94.69934845 160.26414490 19.34404373 59 62 64
92.99472046 160.29739380 15.80492210 72 75 87
87.15185547 160.26753235 19.65882683 55 57 64
92.14576721 160.26176453 18.97869492 54 46 49
92.15804291 160.27764893 21.64847755 50 39 42
93.07130432 160.27703857 20.10759544 54 53 67
94.66771698 160.26165771 18.33997917 106 101 109
90.61340332 160.26792908 18.87090302 56 49 51
91.00038910 160.26296997 20.01631355 87 81 88
93.04218292 160.30245972 19.71735001 71 71 84
92.90682983 160.26634216 18.34914589 84 83 93
88.07186890 187.06265259 0.63598245 73 76 94
88.04329681 189.13864136 0.64569670 97 97 119
88.05565643 184.60223389 0.60484552 108 109 126
88.05222321 184.39027405 0.65184289 114 112 135
86.86320496 186.42884827 0.65140086 141 143 159
81.76589203 189.97956848 0.45585790 52 53 73
81.75391388 189.17298889 0.46768233 28 29 35
81.73316193 184.09085083 0.45505646 23 23 34
81.58536530 190.80967712 0.39531863 17 21 34
89.65709686 177.28604126 0.47901428 59 58 74
89.39064026 177.29263306 0.50544107 54 53 66
87.78966522 177.26849365 0.42651936 38 37 50
82.12278748 177.23945618 0.39750570 0 0 0
81.74095154 179.83227539 0.42078376 30 29 37
86.71443939 168.31173706 0.43292069 14 13 25
85.87407684 168.33790588 0.43372339 10 9 19
84.17245483 163.47358704 0.64230764 116 114 133
83.80201721 168.22100830 0.38029736 19 19 34
82.96834564 167.81359863 0.36022100 23 23 36
82.08158112 171.64175415 0.40236601 2 1 4
81.78391266 167.76794434 0.38312942 5 5 10
86.99481201 160.19816589 10.72125053 150 146 155
86.42803955 160.16862488 4.06655645 157 151 159
81.77857971 146.10377502 0.41098565 18 17 25
81.77804565 152.55921936 0.44283253 11 9 15
84.17387390 145.10357666 0.64012378 114 113 132
73.21326447 187.82179260 0.40884891 6 5 13
70.82712555 179.29603577 0.60992926 154 154 175
13.91819477 106.24670410 0.41021433 6 5 11
72.96331024 157.55856323 0.40839568 5 4 9
72.92440033 160.50337219 0.40675223 8 6 15
70.18026733 162.03337097 0.64399701 142 142 163
70.18451691 157.52282715 0.64310318 138 138 159
72.93891907 149.75381470 0.41821972 7 7 13
67.93498993 187.11828613 0.64700478 135 136 156
67.91742706 186.52204895 0.64912438 117 118 138
67.94281769 182.55097961 0.64168328 134 135 155
68.22780609 179.69404602 0.65482843 112 113 129
67.96114349 179.67642212 0.64512104 115 114 133
62.35315323 184.44680786 24.81497574 112 120 144
62.88389969 164.49243164 0.74389255 146 141 144
65.88057709 163.32937622 15.18305206 30 23 26
66.11848450 163.02043152 8.36456680 75 67 74
65.01889038 164.10374451 18.63945007 148 141 153
58.92994308 168.42765808 0.44909346 15 16 25
57.85630798 168.41958618 0.44513535 19 17 28
52.44977951 167.24549866 0.63890767 136 138 157
51.19329453 163.60893250 0.64822286 108 107 128
50.86727142 163.63348389 0.64700431 103 102 123
6.94143867 84.57978058 0.64341062 113 115 134
49.83691406 166.00526428 0.64339495 117 118 133
50.89123917 162.94566345 11.77560425 79 69 82
59.58478165 164.50384521 11.50285149 45 36 41
59.86909103 162.01452637 18.64490128 177 173 178
59.13663483 159.96122742 18.71973038 164 157 168
49.59958267 166.00149536 0.64430696 117 116 133
47.84398651 167.16958618 0.60951549 146 146 166
46.09831238 166.00019836 0.63841379 113 112 129
45.86205673 166.00343323 0.64042908 116 117 132
45.78595734 163.64250183 0.64296144 110 111 130
45.06592941 165.93827820 0.66167074 142 142 162
44.94388962 161.92594910 0.64836186 142 142 159
44.78017807 164.57632446 11.82823563 136 137 150
44.78725052 163.80006409 11.82222748 119 119 127
44.75949478 164.30632019 11.81982803 78 77 96
44.76267624 163.43733215 11.82077122 60 59 65
44.73987961 160.79869080 11.82233238 94 92 113
44.30579758 164.52249146 11.83836937 83 82 103
43.99382782 164.57115173 11.83036995 99 97 118
43.44738770 163.40292358 11.82509804 57 52 59
43.05150604 162.76782227 11.82575130 66 64 85
52.41685486 159.60086060 18.62617874 145 139 151
52.14592743 164.03088379 18.63802147 153 146 157
50.79735947 161.30397034 18.63857651 168 162 167
50.34193420 158.41157532 18.64117622 162 156 166
44.93353271 152.46293640 0.64456904 141 141 159
44.78646469 158.38023376 11.82038879 119 113 121
44.78741837 155.74766541 11.81329536 120 121 127
44.78905869 154.92440796 11.82555008 127 127 135
44.78820038 154.25875854 11.82490730 139 139 146
44.76694489 153.93157959 11.82002640 121 121 126
44.10433197 156.70121765 11.83013439 99 99 120
44.03515244 156.39343262 11.82508183 119 122 139
43.79349899 154.01211548 11.82410049 61 63 64
43.74972534 154.22224426 11.82216835 68 67 69
43.39704895 153.99942017 11.82579994 77 81 84
43.37810516 160.53707886 11.82602882 84 83 105
43.39132309 154.23210144 11.82405663 81 82 87
43.30839157 155.70932007 11.82279015 97 96 116
43.12221909 153.73083496 11.81481838 55 59 60
40.05792999 155.98365784 11.82657146 91 91 100
39.79837036 156.16052246 11.82743740 69 69 76
40.07822037 155.66972351 11.81823730 82 85 90
39.57871246 156.00090027 11.82520390 77 78 84
41.64915848 159.33103943 11.82536507 76 77 84
42.21787262 159.66227722 11.81552696 61 59 81
40.09572220 157.12158203 11.82689953 33 38 36
40.14988708 156.39239502 11.82501125 36 40 39
42.03511047 160.60955811 11.82215023 89 87 109
41.24207306 156.97734070 11.82380772 20 20 28
94.45767212 160.20675659 21.70464325 43 46 51
94.29353333 160.27101135 21.17987442 64 68 81
94.56377411 180.64248657 0.63057613 136 138 158
92.42272186 180.00837708 0.63057905 126 126 147
95.51843262 167.71485901 0.65472573 163 160 173
95.05795288 160.23432922 4.01086950 170 167 176
95.00878906 160.25949097 18.43417358 99 100 109
87.86484528 160.29763794 18.37577248 81 75 80
89.71623993 160.20997620 21.70209694 38 40 41
89.80545807 160.25575256 19.06886292 60 61 65
88.28079987 160.30435181 20.25016975 68 69 82
95.05792236 160.25662231 12.37338257 162 158 169
93.63777924 160.23289490 17.68766785 147 142 150
84.59600830 188.02041626 0.66484255 136 140 158
84.59530640 186.10247803 0.64805198 143 145 163
84.58343506 185.59387207 0.64042592 143 146 164
70.53618622 183.49647522 0.65139961 128 128 149
70.32910156 181.98510742 0.64839566 127 125 147
72.82656860 179.21667480 0.42643765 3 1 5
52.02976227 166.09101868 0.62583590 125 125 146
59.11965942 164.12147522 18.64335632 159 151 163
59.14062119 159.99749756 18.68797874 167 160 172
44.04172897 163.41156006 11.82594299 54 41 45
43.23673630 161.23408508 11.82385159 70 68 90
44.58394241 157.16101074 11.82649803 96 89 94
43.78153992 160.64892578 11.82531166 27 30 43
43.68920135 158.78179932 11.82288361 88 93 97
43.69520569 156.87585449 11.82206249 103 106 123
43.57705688 157.64915466 11.82356358 89 76 85
43.33314514 158.72981262 11.81731606 93 96 101
43.08422089 157.72128296 11.82120323 75 76 80
42.12223434 158.40827942 11.82586288 67 70 82
42.59593964 159.66087341 11.82526684 49 46 68
42.35806274 158.86888123 11.82683849 90 83 111
40.54732513 155.72737122 11.81959057 76 79 97
41.91493988 160.07327271 11.82603645 82 81 104
41.82982254 156.54615784 11.82439899 87 85 108
39.73389053 154.87231445 11.82532787 72 76 78
41.27774429 155.67449951 11.84360790 82 84 103
42.02232742 155.70138550 11.82510757 107 110 127
95.40785217 165.50384521 0.61468339 151 152 173
90.93647766 160.33142090 18.73799706 93 86 92
68.18815613 186.64820862 0.64966607 137 136 159
62.03456497 164.29017639 2.91702533 43 54 66
69.12844849 152.83511353 0.84582138 120 120 141
45.46210480 158.87832642 0.72737533 99 98 120
44.56357574 158.76176453 11.82593727 72 75 79
44.53116989 156.00111389 11.80239010 89 88 109
45.52695465 163.48826599 0.81114757 127 126 148
45.34990311 161.34222412 0.58929890 133 132 154
95.46785736 191.05149841 0.63205183 166 168 186
95.19480896 187.19430542 0.63532680 169 170 189
95.13891602 183.43519592 0.64846230 158 159 178
94.98818970 187.56954956 0.68265259 160 161 181
94.61997223 183.80291748 0.64080429 169 169 188
92.04178619 190.14816284 0.65192664 168 168 187
94.33005524 180.61418152 0.64339787 168 169 187
93.84542084 180.09692383 0.64188516 143 143 165
90.48526764 179.64067078 0.66190368 159 160 178
95.05709076 167.56059265 0.63609684 167 168 186
93.82102203 168.81169128 0.39399582 31 31 50
93.22830963 164.96571350 0.65669572 136 133 155
94.87682343 160.20117188 15.30706120 173 174 184
94.09211731 160.25830078 18.10060692 177 176 184
93.62082672 160.26406860 21.47429466 82 82 90
92.16154480 160.29240417 21.84365654 66 65 80
91.95786285 160.23648071 18.59510040 103 101 106
88.17304230 187.88786316 0.63870430 167 169 186
88.17803955 186.95237732 0.64984280 166 166 186
87.95232391 185.64489746 0.62656862 139 139 159
87.96102142 182.85888672 0.64595205 143 142 163
87.58263397 187.52478027 0.65125483 149 150 170
84.40338898 187.03784180 0.74758285 190 187 194
