27.22,150.38,6.63,14
27.23,139.27,6.9,14
39.39,149.98,34.1,14
30.8,148.34,25.8,14
30.59,147.78,24.95,14
27.54,148.73,7.76,14
39.49,150.58,19.48,14
27.73,147.74,22.49,14
26.74,147.67,5.62,14
35.77,149.95,35.19,14
30.73,148.13,26.92,14
27.72,143.1,13.82,14
27.61,149.45,7.86,14
26.87,147.93,0.56,14
27.14,149.83,6.47,14
25.32,148.92,0.61,14
27.69,148.53,9.17,14
26.75,145.14,5.92,14
26.74,142.01,5.95,14
27.67,148.99,10.14,14
27.48,143.34,12.62,14
27.56,141.56,9.58,14
27.68,144.57,14.06,14
27.66,144.58,15.76,14
26.75,150.23,5.95,14
26.9,151.15,2.52,14
34.66,191.06,0.64,8
34.42,190.91,0.65,8
27.71,182.56,0.65,8
35.31,189.64,50.41,8
47.85,191.05,0.64,8
41.76,191.03,0.65,8
42.01,191.02,0.63,8
47.85,190.87,0.65,8
35.15,185.86,50.41,8
33.55,183.24,48.72,8
32.79,185.48,48.71,8
32.39,183.37,48.69,8
48.02,190.82,0.7,8
29.74,186.17,48.69,8
29.74,183.36,48.69,8
32.37,186.07,48.7,8
29.32,183.27,48.7,8
27.8,188.66,44.84,8
29.65,183.11,48.82,8
50.33,191.04,0.65,8
35.66,186.71,50.42,8
46.01,190.87,0.59,8
47.46,191.01,0.65,8
33.94,191.01,0.67,8
35.61,186.91,50.49,8
35.8,188.91,50.41,8
35.76,187.45,50.52,8
32.02,186.06,48.72,8
32.02,183.25,48.73,8
29.12,185.49,48.7,8
35.55,187.53,50.58,8
33.47,185.82,48.79,8
33.48,183.01,48.78,8
32.37,182.73,48.71,8
32.07,182.87,48.71,8
35.56,187.34,50.46,8
35.53,186.48,50.49,8
32.15,185.49,48.72,8
29.35,185.46,48.7,8
51.15,189.72,61.92,8
27.91,186.8,6.5,8
27.87,184.84,6.57,8
27.86,185.69,6.52,8
27.82,185.43,6.87,8
33.58,186.19,48.71,8
27.71,184.7,6.35,8
33.04,183.35,48.72,8
30.0,183.35,48.72,8
29.59,182.66,48.7,8
29.12,182.68,48.72,8
27.83,182.01,32.98,8
32.09,183.02,48.72,8
27.79,188.45,48.28,8
29.32,182.75,48.75,8
27.9,184.53,49.45,8
34.66,188.66,48.87,8
32.66,183.03,48.8,8
42.58,181.67,61.0,8
46.22,181.66,60.99,8
45.55,184.7,64.86,8
47.87,184.41,64.86,8
44.91,184.01,64.86,8
43.43,181.67,61.0,8
46.33,184.22,64.86,8
46.94,185.17,64.86,8
47.58,185.04,64.86,8
44.15,183.9,64.86,8
43.81,182.05,60.85,8
44.59,185.84,64.86,8
42.08,186.88,62.48,8
43.52,184.28,64.86,8
44.41,186.3,64.86,8
43.49,185.66,64.86,8
42.0,188.22,62.5,8
45.13,186.69,64.86,8
47.21,184.95,64.86,8
46.76,186.47,64.86,8
43.76,185.5,64.86,8
47.18,183.85,64.86,8
33.59,183.39,48.7,8
46.94,186.19,64.86,8
46.98,186.61,64.86,8
41.76,185.59,62.52,8
43.99,186.75,64.86,8
45.95,186.25,64.86,8
46.7,186.27,64.86,8
46.99,186.81,64.86,8
41.96,187.64,62.5,8
43.42,184.53,64.86,8
44.0,185.84,64.86,8
46.3,184.43,64.86,8
44.57,185.16,64.86,8
41.92,187.84,62.5,8
45.88,185.87,64.86,8
47.0,184.08,64.86,8
43.88,186.01,64.86,8
47.77,185.95,64.86,8
44.13,186.58,64.86,8
46.85,184.62,64.86,8
44.0,184.99,64.86,8
47.8,186.7,64.86,8
45.4,185.28,64.86,8
45.39,184.29,64.86,8
45.87,181.89,60.87,8
46.63,185.66,64.86,8
45.2,184.79,64.86,8
45.06,186.34,64.86,8
42.61,182.03,60.85,8
46.45,186.62,64.86,8
47.16,185.81,64.86,8
44.19,185.95,64.86,8
46.68,183.85,64.86,8
47.57,186.83,64.86,8
46.94,184.38,64.86,8
43.26,182.01,60.87,8
41.91,187.33,62.5,8
43.89,186.42,64.86,8
46.58,186.52,64.86,8
38.79,183.21,61.66,8
46.29,185.91,64.86,8
32.15,182.68,48.71,8
46.96,184.63,64.86,8
43.3,186.73,64.86,8
43.77,186.76,64.86,8
31.98,185.45,48.69,8
43.78,185.33,64.86,8
38.64,182.96,60.73,8
34.65,180.81,0.65,8
27.88,185.57,6.7,8
33.59,185.45,48.69,8
33.59,182.64,48.7,8
38.64,182.09,48.65,8
35.45,181.52,1.03,8
38.45,180.85,0.71,8
35.07,180.87,0.65,8
46.0,181.17,1.2,8
48.99,180.62,18.14,8
46.25,180.62,18.13,8
42.94,180.64,0.86,8
37.82,181.18,1.14,8
48.99,180.62,12.74,8
49.39,180.64,23.21,8
48.35,180.66,0.82,8
49.43,184.14,64.86,8
49.49,183.25,64.77,8
42.88,186.67,63.81,8
38.74,188.37,61.56,8
38.79,185.3,61.54,8
38.74,186.95,61.36,8
38.71,186.97,60.35,8
38.69,183.35,59.37,8
38.69,184.4,59.24,8
38.69,184.64,59.16,8
38.72,187.03,58.85,8
38.7,184.68,58.6,8
38.71,184.72,58.1,8
38.71,186.35,58.02,8
38.72,184.67,57.64,8
38.68,186.97,56.21,8
38.68,182.21,56.18,8
38.71,184.67,55.87,8
38.7,186.95,55.38,8
38.71,184.72,52.68,8
38.68,182.18,50.76,8
38.71,186.99,50.43,8
27.8,189.46,48.47,8
27.81,189.45,46.0,8
27.77,186.98,42.84,8
27.8,186.96,29.73,8
27.8,184.66,30.2,8
27.8,185.05,27.06,8
27.79,182.23,27.01,8
38.71,189.02,60.64,8
38.67,189.17,59.0,8
38.7,188.71,59.0,8
38.56,186.81,59.08,8
38.71,185.44,58.99,8
38.7,184.84,59.0,8
38.7,182.95,58.98,8
38.71,182.55,58.14,8
38.7,188.71,56.29,8
38.74,185.44,56.25,8
38.7,188.71,50.87,8
38.7,188.71,53.58,8
38.68,185.45,50.88,8
27.82,186.97,49.24,8
27.82,184.69,49.24,8
28.09,189.05,49.72,8
27.82,182.69,1.32,8
51.17,190.69,61.86,8
47.87,188.67,64.87,8
42.89,185.38,63.95,8
41.49,184.86,61.26,8
38.76,188.44,60.99,8
38.75,188.76,60.86,8
38.7,189.37,60.44,8
38.69,184.8,60.45,8
38.7,188.44,59.45,8
38.73,185.98,58.68,8
38.7,186.42,57.92,8
38.69,182.76,57.91,8
38.69,182.42,57.9,8
38.72,188.42,56.73,8
38.73,182.09,60.64,8
38.63,189.55,53.92,8
34.76,186.31,49.13,8
27.78,185.69,44.54,8
27.82,189.62,38.5,8
27.8,185.69,41.8,8
27.79,185.69,28.24,8
27.79,186.01,14.03,8
38.58,187.09,61.72,8
38.86,184.55,61.51,8
38.67,183.19,59.35,8
38.69,188.48,59.3,8
38.68,184.56,58.7,8
38.69,188.5,58.69,8
38.69,185.46,57.93,8
38.68,188.51,55.98,8
38.68,188.49,55.2,8
38.71,188.48,52.48,8
38.72,188.49,50.53,8
38.66,182.26,54.02,8
38.7,188.49,53.26,8
38.76,185.43,51.35,8
38.62,183.22,51.25,8
34.66,187.54,48.88,8
34.66,186.41,48.87,8
27.8,188.49,46.57,8
27.8,185.43,36.64,8
27.8,185.43,39.35,8
27.76,183.0,15.15,8
27.8,186.22,25.83,8
38.59,189.45,59.55,8
38.79,186.2,59.46,8
38.74,184.62,59.42,8
38.71,182.99,56.93,8
38.69,185.44,56.8,8
27.89,188.67,49.21,8
27.83,183.88,48.71,8
27.81,188.66,47.64,8
27.8,186.22,44.76,8
27.79,185.43,44.76,8
27.81,182.99,36.75,8
27.81,185.42,42.05,8
27.79,183.0,28.66,8
38.75,182.64,49.22,8
38.71,182.19,57.66,8
38.74,184.71,61.34,8
38.8,185.44,61.69,8
38.7,185.95,48.87,8
27.9,185.41,49.59,8
38.66,182.1,52.46,8
38.66,188.51,57.93,8
42.23,185.02,62.64,8
38.7,183.02,51.61,8
57.06,189.51,0.68,32
56.1,189.52,0.67,32
55.47,189.5,0.69,32
60.41,189.62,0.65,32
56.17,189.62,0.59,32
67.23,181.98,18.41,32
66.79,181.99,18.38,32
63.27,184.44,24.85,32
65.61,188.19,18.78,32
62.34,183.41,24.91,32
62.2,183.73,24.92,32
62.2,183.97,24.89,32
66.03,189.5,0.74,32
60.69,189.5,0.72,32
60.67,181.87,18.38,32
58.18,182.62,18.03,32
65.18,185.2,18.36,32
64.15,189.52,18.25,32
62.79,184.99,22.04,32
62.35,183.24,24.83,32
66.35,189.61,0.64,32
65.21,189.62,0.64,32
64.92,189.62,0.65,32
61.83,189.61,0.64,32
60.71,189.62,0.67,32
62.21,184.78,23.65,32
59.09,182.89,18.13,32
62.91,183.85,25.17,32
59.61,183.17,21.57,32
67.07,189.15,18.05,32
61.81,189.49,0.7,32
65.7,186.29,19.4,32
65.68,188.12,18.7,32
65.62,182.16,18.24,32
63.57,184.06,24.9,32
60.42,181.86,18.36,32
57.34,189.52,0.71,32
57.49,181.99,18.41,32
57.02,182.64,23.37,32
66.01,182.2,18.25,32
62.89,182.8,24.65,32
55.04,182.61,18.04,32
58.06,182.92,23.8,32
62.79,183.32,23.89,32
66.35,181.87,18.4,32
65.78,182.06,18.31,32
62.28,183.85,24.96,32
56.82,181.89,18.36,32
56.32,181.89,18.34,32
55.46,182.66,22.16,32
67.77,187.15,0.72,32
67.76,184.21,0.66,32
67.75,183.96,0.76,32
67.75,186.45,0.73,32
63.85,189.51,0.75,32
63.02,184.09,25.17,32
59.33,181.95,18.36,32
54.04,187.86,18.54,32
62.35,184.45,24.81,32
67.78,184.48,0.74,32
67.2,187.9,18.72,32
63.23,183.85,25.15,32
63.24,184.46,24.88,32
66.0,182.19,18.24,32
58.91,189.45,18.23,32
57.98,182.15,21.27,32
64.01,184.19,24.57,32
67.38,181.92,18.27,32
61.59,181.84,18.39,32
66.64,181.08,0.65,32
63.27,183.25,24.82,32
67.7,181.99,0.63,32
67.12,181.26,0.64,32
65.59,181.34,0.65,32
65.83,181.38,0.62,32
61.75,182.2,0.67,32
58.18,182.21,0.69,32
63.85,181.35,0.64,32
59.07,181.97,0.64,32
55.98,181.92,0.65,32
61.49,181.87,0.64,32
60.67,182.02,0.64,32
56.87,181.95,0.65,32
60.25,182.21,0.73,32
60.41,181.86,18.4,32
59.77,182.2,0.71,32
54.38,182.16,0.73,32
66.49,184.02,18.05,32
54.81,182.45,4.22,32
62.9,183.84,25.18,32
64.15,189.54,18.24,32
56.49,182.5,4.2,32
54.03,181.96,0.64,32
64.11,181.96,0.64,32
66.51,181.86,0.66,32
65.17,189.52,18.25,32
66.06,181.91,0.64,32
66.95,181.94,0.64,32
63.03,182.06,0.65,32
65.3,181.34,0.64,32
67.32,189.51,18.23,32
64.78,189.53,18.24,32
61.92,181.95,0.64,32
63.44,183.53,24.97,32
56.78,182.48,24.39,32
55.48,182.2,0.68,32
67.14,184.92,20.05,32
54.73,182.94,24.76,32
57.98,182.15,21.27,32
54.56,189.52,18.22,32
60.02,182.63,24.39,32
55.22,189.5,18.22,32
59.91,182.01,18.33,32
59.07,182.92,24.81,32
61.02,181.92,0.65,32
61.19,181.68,0.65,32
66.22,181.69,0.64,32
65.85,181.7,0.64,32
60.81,181.7,0.64,32
66.98,184.01,18.1,32
61.85,181.61,0.64,32
62.93,182.47,4.25,32
60.03,182.05,0.65,32
65.69,182.03,0.6,32
66.53,181.86,0.65,32
63.1,181.93,0.69,32
58.41,189.47,18.23,32
59.17,182.46,22.3,32
67.48,189.24,18.24,32
59.17,182.5,2.26,32
62.63,181.63,0.64,32
63.03,183.88,18.16,32
66.52,184.27,19.05,32
60.06,182.63,21.91,32
56.17,189.46,18.24,32
57.76,189.45,18.24,32
55.93,182.6,23.83,32
58.57,189.27,18.04,32
63.46,182.2,1.89,32
60.02,182.26,1.85,32
66.2,184.11,20.25,32
58.92,189.43,18.25,32
59.92,182.62,23.83,32
55.52,182.38,13.96,32
66.03,182.31,0.92,32
62.66,182.31,0.91,32
53.51,189.23,18.26,32
57.37,182.48,2.31,32
55.79,182.42,2.36,32
59.81,182.19,18.25,32
53.9,182.21,18.26,32
67.56,181.85,14.68,32
57.72,182.64,24.38,32
54.57,189.48,18.23,32
55.22,189.47,18.22,32
66.69,189.45,18.24,32
65.43,182.24,1.08,32
55.73,189.45,18.24,32
57.33,189.45,18.24,32
66.08,182.29,2.57,32
66.94,182.38,4.41,32
94.86,160.21,8.82,6
92.91,160.25,10.91,6
90.5,160.17,8.83,6
90.54,160.15,6.18,6
90.48,160.2,4.32,6
88.2,160.15,9.57,6
90.98,160.21,2.34,6
90.5,160.19,1.69,6
90.91,160.07,0.55,6
92.92,160.26,12.08,6
92.23,160.3,16.8,6
90.3,160.21,18.0,6
87.52,160.28,20.17,6
90.08,160.26,19.49,6
86.21,160.26,19.77,6
92.89,160.25,14.39,6
87.63,160.12,17.88,6
87.61,160.27,19.44,6
86.31,148.93,0.61,6
86.2,147.83,0.67,6
86.07,145.26,0.65,6
92.58,160.27,11.67,6
86.51,160.2,1.25,6
95.06,160.25,9.72,6
95.09,160.22,5.13,6
91.14,160.18,6.56,6
88.02,160.19,10.7,6
91.12,160.2,2.04,6
91.45,160.32,0.66,6
92.12,160.28,14.8,6
92.99,160.29,12.3,6
92.15,160.27,16.94,6
90.23,160.26,19.35,6
92.99,160.29,11.12,6
89.95,160.27,18.33,6
86.69,160.25,18.83,6
87.7,160.29,18.34,6
87.4,160.23,20.22,6
90.41,160.31,0.65,6
89.21,160.31,0.65,6
87.42,160.25,18.34,6
92.54,160.21,10.54,6
94.63,160.26,21.61,6
94.81,160.25,19.48,6
94.81,160.27,19.16,6
94.84,160.26,10.85,6
95.11,160.26,0.85,6
92.25,160.29,10.92,6
90.49,160.21,10.82,6
92.24,160.27,21.44,6
92.21,160.28,15.95,6
92.5,160.23,17.12,6
94.82,160.23,18.02,6
91.15,160.27,20.78,6
92.0,160.27,19.51,6
88.98,160.28,18.64,6
90.93,160.23,19.79,6
89.9,160.27,21.62,6
93.21,160.26,20.29,6
91.95,160.25,20.49,6
90.54,160.27,20.26,6
92.24,160.29,20.24,6
90.67,160.26,21.42,6
89.78,160.27,21.14,6
90.7,160.26,19.04,6
92.24,160.3,15.58,6
90.37,160.26,18.67,6
92.89,160.31,15.67,6
92.04,160.27,18.05,6
86.78,160.25,20.8,6
91.92,160.23,12.56,6
91.88,160.23,17.1,6
92.54,160.2,14.25,6
86.04,144.72,0.65,6
93.25,160.28,9.57,6
92.58,160.31,21.11,6
92.58,160.27,16.35,6
91.28,160.37,20.72,6
91.62,160.22,5.29,6
93.0,160.28,16.95,6
94.7,160.26,19.34,6
92.99,160.3,15.8,6
87.15,160.27,19.66,6
92.15,160.26,18.98,6
92.16,160.28,21.65,6
93.07,160.28,20.11,6
94.67,160.26,18.34,6
90.61,160.27,18.87,6
91.0,160.26,20.02,6
93.04,160.3,19.72,6
92.91,160.27,18.35,6
86.99,160.2,10.72,6
86.43,160.17,4.07,6
94.46,160.21,21.7,6
94.29,160.27,21.18,6
95.06,160.23,4.01,6
95.01,160.26,18.43,6
87.86,160.3,18.38,6
89.72,160.21,21.7,6
89.81,160.26,19.07,6
88.28,160.3,20.25,6
95.06,160.26,12.37,6
93.64,160.23,17.69,6
90.94,160.33,18.74,6
94.88,160.2,15.31,6
94.09,160.26,18.1,6
93.62,160.26,21.47,6
92.16,160.29,21.84,6
91.96,160.24,18.6,6
88.91,160.19,0.71,6
87.24,160.23,18.58,6
92.95,160.22,17.35,6
94.28,160.27,15.65,6
93.65,160.25,15.32,6
93.01,160.29,20.47,6
93.18,160.24,12.68,6
91.83,160.31,18.38,6
87.22,160.17,5.29,6
95.48,145.65,0.65,6
89.84,160.34,0.68,6
86.21,145.6,16.93,6
86.2,138.04,0.65,6
86.1,143.36,0.65,6
85.99,159.46,22.87,6
86.21,125.39,0.64,6
86.52,126.81,16.94,6
86.26,136.04,0.66,6
85.91,159.77,22.8,6
86.24,129.92,0.65,6
89.13,143.97,22.72,6
90.41,160.31,0.65,6
86.08,134.78,22.86,6
95.51,141.79,22.77,6
93.48,140.47,23.25,6
91.25,142.91,24.27,6
93.18,159.26,23.24,6
85.73,136.29,0.64,6
85.89,157.74,22.82,6
85.96,158.91,22.82,6
85.48,143.36,0.64,6
86.09,143.36,0.64,6
86.23,124.69,0.67,6
85.64,136.72,0.64,6
95.29,154.55,22.8,6
95.33,146.48,22.72,6
95.25,157.76,22.82,6
92.03,144.39,23.69,6
95.61,131.73,22.75,6
95.56,139.8,22.8,6
89.44,143.08,25.04,6
95.6,135.77,22.79,6
85.78,153.61,22.89,6
89.88,145.63,23.07,6
95.55,140.98,22.82,6
95.55,138.97,22.8,6
95.29,142.4,22.79,6
95.38,153.89,22.77,6
85.78,148.43,22.89,6
95.06,158.6,22.83,6
86.56,130.54,0.62,6
95.38,154.74,22.76,6
93.45,140.73,23.03,6
92.96,160.29,21.73,6
95.61,133.75,22.79,6
90.43,160.2,13.44,6
94.19,144.06,23.03,6
85.91,157.18,22.82,6
85.9,144.58,22.75,6
85.66,141.0,22.77,6
85.62,141.91,22.91,6
85.86,132.37,23.01,6
85.94,152.84,22.8,6
86.26,138.08,22.8,6
86.22,132.02,22.78,6
85.96,142.2,22.82,6
86.73,140.4,23.21,6
94.34,143.16,22.97,6
85.75,158.18,22.9,6
85.52,149.77,22.98,6
95.5,142.61,0.64,6
95.37,143.36,0.64,6
95.5,142.03,0.63,6
95.46,142.26,0.63,6
86.14,153.69,22.75,6
85.88,157.74,22.81,6
85.87,157.54,22.78,6
85.58,151.5,22.98,6
85.58,150.53,22.98,6
85.56,151.16,23.01,6
85.87,143.22,22.78,6
85.87,141.77,22.76,6
86.26,136.1,22.82,6
86.24,141.25,22.75,6
89.86,143.85,24.88,6
86.04,137.46,22.86,6
85.71,131.65,22.99,6
89.39,124.79,22.6,6
86.1,145.67,3.71,6
86.4,126.8,3.65,6
86.06,139.46,0.64,6
86.22,124.61,0.64,6
86.18,136.91,22.81,6
85.99,140.84,22.48,6
89.9,145.33,23.24,6
92.04,125.57,24.13,6
86.24,134.04,22.79,6
86.18,134.89,22.81,6
86.22,125.78,22.76,6
86.21,129.49,22.78,6
85.89,155.71,22.84,6
85.65,138.07,0.65,6
86.27,140.09,22.81,6
86.09,145.26,0.65,6
91.63,142.92,24.17,6
90.31,126.79,23.0,6
89.74,124.28,25.05,6
94.49,125.27,23.03,6
86.18,138.94,22.8,6
86.29,140.64,22.86,6
86.28,136.62,22.84,6
86.08,134.81,22.88,6
85.88,155.71,22.82,6
86.18,138.93,22.81,6
85.94,150.82,22.77,6
85.97,140.88,22.87,6
85.98,154.88,22.79,6
85.9,157.73,22.82,6
86.22,127.91,0.78,6
91.55,124.11,24.25,6
85.59,139.07,0.65,6
90.2,126.53,23.27,6
86.21,125.39,0.63,6
86.26,123.88,22.79,6
86.23,127.97,0.61,6
91.5,144.34,24.18,6
91.8,125.57,24.19,6
86.27,134.58,0.64,6
93.93,125.6,23.27,6
93.2,125.59,23.56,6
91.32,144.29,24.25,6
91.62,125.5,24.25,6
86.19,136.91,22.82,6
86.18,124.42,22.8,6
95.41,123.18,0.78,6
93.48,144.39,23.34,6
90.89,123.04,0.65,6
90.2,126.5,23.31,6
91.56,124.11,24.27,6
92.51,125.26,23.87,6
90.54,142.84,24.59,6
93.49,140.18,23.05,6
86.62,123.41,1.01,6
90.88,123.04,0.66,6
88.42,123.17,3.5,6
88.89,123.15,3.91,6
93.01,123.0,0.67,6
92.34,123.27,1.67,6
88.18,123.1,7.95,6
88.25,123.1,12.5,6
93.11,123.1,2.34,6
92.63,123.13,10.7,6
95.33,123.14,8.58,6
89.0,123.09,1.35,6
91.91,123.04,0.65,6
90.6,123.82,23.54,6
91.76,123.8,23.51,6
89.51,123.0,11.57,6
90.84,124.04,24.59,6
94.39,124.33,23.07,6
92.66,123.14,6.14,6
89.09,123.12,12.47,6
92.32,123.84,23.64,6
88.66,123.25,10.6,6
86.99,140.49,23.26,6
94.77,123.62,23.0,6
86.08,141.67,22.05,6
86.19,150.5,16.96,6
86.06,148.01,21.47,6
86.19,150.5,12.75,6
86.21,145.31,16.94,6
86.14,146.03,20.55,6
86.2,149.73,16.96,6
86.14,145.72,19.9,6
86.1,135.25,22.18,6
86.08,129.76,22.16,6
86.09,128.87,22.17,6
86.09,130.16,22.13,6
86.48,134.09,21.44,6
86.53,129.72,21.4,6
86.52,130.05,21.35,6
86.38,131.02,21.34,6
86.53,127.51,20.26,6
86.52,136.45,20.22,6
86.47,135.7,20.02,6
86.47,131.25,20.02,6
86.36,136.68,19.93,6
86.55,127.4,19.74,6
86.42,138.27,19.69,6
86.43,133.85,19.69,6
86.39,129.43,19.71,6
86.5,129.78,19.42,6
86.42,138.95,19.15,6
86.43,134.53,19.18,6
86.46,127.37,21.44,6
86.41,125.0,19.72,6
86.55,125.32,19.38,6
89.2,143.45,23.31,6
89.36,124.76,23.38,6
86.25,145.21,20.13,6
86.22,149.73,20.12,6
86.23,147.59,20.07,6
86.26,143.15,20.05,6
86.2,146.45,19.77,6
86.14,151.19,14.74,6
86.18,143.53,21.38,6
86.21,150.7,20.66,6
86.33,138.19,21.5,6
86.45,135.43,21.39,6
86.6,136.28,20.58,6
86.5,139.8,20.14,6
86.52,135.36,20.12,6
86.52,130.93,20.12,6
86.53,137.64,20.07,6
86.54,133.21,20.06,6
86.55,128.76,20.05,6
86.52,132.18,19.32,6
86.75,123.41,22.69,6
86.53,126.49,20.11,6
86.58,124.32,20.03,6
86.53,141.43,20.66,6
86.42,134.44,21.18,6
89.6,145.34,23.03,6
95.54,133.69,22.74,6
95.54,125.57,22.77,6
95.5,134.24,22.77,6
95.53,130.21,22.74,6
89.53,123.96,25.05,6
89.46,125.15,23.81,6
89.44,124.7,22.73,6
89.46,125.09,22.71,6
88.98,123.03,22.72,6
87.1,123.05,22.76,6
86.15,151.52,13.74,6
86.26,150.94,21.1,6
86.41,140.27,20.44,6
85.97,132.29,22.4,6
86.06,135.85,22.29,6
86.49,136.63,21.17,6
86.5,127.75,21.15,6
86.49,127.8,20.54,6
86.43,135.83,20.42,6
86.56,123.28,19.54,6
95.12,141.64,22.81,6
86.22,145.97,19.35,6
86.08,150.02,20.87,6
86.2,149.25,19.65,6
86.15,147.73,20.78,6
86.42,140.06,20.84,6
86.46,137.78,20.77,6
86.43,133.36,20.78,6
86.37,131.23,20.88,6
86.42,128.95,20.8,6
86.44,138.32,20.03,6
86.31,131.7,19.87,6
86.36,127.23,19.95,6
86.36,136.15,19.72,6
86.47,134.89,19.67,6
86.43,126.06,19.7,6
86.18,142.38,22.14,6
89.82,125.08,24.09,6
86.61,133.54,21.85,6
86.42,138.98,21.43,6
86.56,127.73,17.86,6
86.5,127.69,18.5,6
95.54,135.69,22.75,6
86.71,140.46,23.08,6
95.52,124.34,22.78,6
85.98,128.5,22.34,6
86.69,124.06,18.11,6
86.49,124.8,18.25,6
86.53,127.17,19.17,6
86.43,123.72,16.24,6
94.68,160.27,22.11,6
95.27,155.65,22.74,6
95.04,160.25,8.59,6
86.04,160.14,21.74,6
86.24,156.86,12.24,6
86.41,149.01,0.73,6
86.21,154.94,5.82,6
86.18,160.0,1.76,6
86.12,158.96,7.92,6
60.23,163.41,18.64,12
67.08,158.0,18.64,12
66.81,157.97,18.64,12
66.73,161.3,18.64,12
66.66,159.81,18.64,12
65.89,163.25,0.71,12
65.82,163.87,0.64,12
63.51,164.56,0.69,12
62.68,164.57,0.64,12
62.12,164.56,0.69,12
61.66,164.51,1.22,12
61.33,164.68,0.7,12
61.29,164.35,5.58,12
64.37,164.4,14.99,12
60.11,164.52,11.86,12
59.63,164.58,15.0,12
59.61,164.36,15.16,12
60.44,164.6,14.54,12
60.11,164.59,14.52,12
62.61,164.55,14.96,12
63.66,164.54,11.4,12
64.36,164.39,5.32,12
66.89,161.13,14.53,12
60.78,164.57,5.3,12
65.8,159.22,18.64,12
64.48,159.81,18.64,12
64.38,163.41,18.64,12
64.14,157.71,18.65,12
62.72,161.05,18.89,12
62.74,157.7,18.65,12
62.63,164.71,18.66,12
62.63,161.1,18.65,12
62.51,163.95,18.64,12
62.41,161.11,18.65,12
61.6,161.07,19.47,12
61.42,161.1,18.64,12
60.91,161.09,18.64,12
60.34,163.96,18.64,12
60.21,161.04,18.88,12
59.86,161.13,18.64,12
59.83,157.98,18.65,12
59.65,161.1,18.64,12
58.77,157.73,18.69,12
58.17,165.85,0.64,12
56.89,165.7,0.65,12
56.85,164.42,0.67,12
56.52,164.26,0.87,12
56.37,164.25,0.84,12
57.05,164.51,8.59,12
51.26,163.07,8.94,12
57.49,157.85,18.64,12
57.33,162.05,18.64,12
56.25,163.9,18.64,12
56.01,164.64,18.65,12
55.77,164.7,18.67,12
55.74,161.03,18.64,12
54.65,163.88,18.64,12
54.54,164.64,18.65,12
54.54,161.03,18.65,12
54.5,157.9,18.64,12
54.44,160.99,18.9,12
53.18,162.05,18.64,12
52.69,163.89,18.64,12
67.01,158.58,18.64,12
66.97,159.58,18.63,12
59.78,164.32,15.31,12
65.24,158.4,19.1,12
63.32,164.68,18.65,12
62.21,164.69,18.65,12
61.15,164.72,18.64,12
60.46,158.38,19.07,12
57.67,164.47,0.63,12
56.51,164.52,0.65,12
53.68,164.68,0.72,12
57.34,164.53,11.38,12
54.91,164.48,15.01,12
56.71,158.33,19.09,12
55.33,161.09,18.64,12
54.91,161.08,18.65,12
63.38,164.51,2.05,12
60.89,164.54,2.67,12
59.89,164.52,12.05,12
62.59,164.59,18.63,12
60.99,161.24,18.68,12
59.23,164.42,1.85,12
58.2,164.72,0.61,12
55.23,164.47,2.09,12
57.5,160.44,18.85,12
62.61,164.49,0.79,12
61.42,164.61,4.59,12
62.32,164.49,8.37,12
61.16,164.44,15.04,12
63.51,164.5,8.36,12
63.63,164.48,14.61,12
63.34,164.47,5.48,12
60.0,164.49,11.5,12
62.81,164.49,8.31,12
64.74,163.84,18.65,12
63.88,164.83,18.69,12
62.86,161.08,18.78,12
62.81,164.95,18.79,12
62.38,161.1,18.8,12
62.22,161.38,18.64,12
60.73,163.52,18.64,12
60.35,164.49,18.64,12
60.34,161.07,18.76,12
57.51,165.7,0.63,12
56.79,164.28,1.22,12
56.74,165.84,0.63,12
56.11,164.23,1.16,12
55.73,165.99,0.65,12
55.58,165.95,0.65,12
52.9,164.21,0.83,12
56.4,164.37,3.63,12
58.05,160.7,18.74,12
57.29,161.94,18.64,12
54.95,161.3,18.64,12
54.78,161.01,18.78,12
54.51,161.02,18.79,12
54.49,158.41,18.64,12
54.32,161.0,18.76,12
53.96,160.95,18.7,12
53.15,161.94,18.65,12
52.67,160.26,18.64,12
67.23,158.04,18.71,12
62.07,164.53,1.19,12
57.81,164.45,1.26,12
55.12,164.48,1.29,12
57.17,158.17,18.75,12
53.84,164.24,2.93,12
63.14,164.19,17.19,12
54.42,160.81,19.13,12
65.82,163.4,0.68,12
65.72,163.45,0.7,12
64.56,164.0,1.21,12
65.84,163.52,8.24,12
64.49,164.36,8.24,12
65.23,163.97,11.41,12
66.73,160.39,18.64,12
63.39,160.52,18.65,12
51.31,163.75,0.64,12
57.33,157.9,18.63,12
54.75,161.03,18.64,12
54.5,162.04,18.64,12
50.39,161.01,18.64,12
50.35,157.9,18.64,12
50.32,162.05,18.65,12
63.66,164.41,1.43,12
61.05,164.53,0.7,12
64.5,164.05,5.55,12
50.45,162.27,18.61,12
50.2,159.5,18.64,12
64.64,164.12,1.88,12
62.16,164.45,4.61,12
62.88,164.49,0.74,12
65.88,163.33,15.18,12
66.12,163.02,8.36,12
65.02,164.1,18.64,12
51.19,163.61,0.65,12
50.89,162.95,11.78,12
59.58,164.5,11.5,12
59.87,162.01,18.64,12
59.14,159.96,18.72,12
52.42,159.6,18.63,12
52.15,164.03,18.64,12
50.8,161.3,18.64,12
50.34,158.41,18.64,12
59.12,164.12,18.64,12
59.14,160.0,18.69,12
62.03,164.29,2.92,12
66.24,162.68,1.14,12
66.86,162.13,18.64,12
50.43,161.22,18.64,12
50.31,162.05,18.64,12
50.11,160.94,18.64,12
65.99,163.06,1.15,12
50.74,163.35,0.64,12
66.58,162.23,7.82,12
66.78,160.89,0.99,12
64.49,164.28,8.39,12
64.5,160.34,18.65,12
64.02,162.02,18.64,12
50.04,160.22,18.72,12
50.04,159.03,18.72,12
65.75,163.37,1.14,12
66.61,162.22,5.33,12
66.46,159.06,1.63,12
66.89,159.58,14.52,12
66.87,160.74,15.0,12
66.58,159.13,1.23,12
66.81,161.23,1.15,12
66.82,160.76,14.59,12
52.83,164.29,5.38,12
51.69,163.83,5.5,12
50.27,158.83,7.76,12
52.52,164.12,15.52,12
52.82,164.29,15.04,12
50.3,161.59,7.32,12
52.42,164.16,15.03,12
50.27,158.83,16.65,12
50.37,161.52,8.49,12
50.07,159.06,0.81,12
51.87,163.63,3.24,12
51.42,163.37,11.92,12
51.2,163.23,9.83,12
53.26,164.26,2.44,12
55.61,164.5,1.1,12
52.67,164.04,1.0,12
51.55,163.35,1.08,12
51.57,163.55,11.77,12
49.86,159.76,1.08,12
50.28,159.23,16.26,12
50.65,162.31,16.11,12
50.62,162.1,9.29,12
52.03,163.94,10.53,12
50.49,161.65,15.97,12
50.5,161.41,9.13,12
51.93,158.33,19.07,12
54.24,160.84,20.54,12
50.16,158.51,18.65,12
53.84,164.61,18.66,12
60.23,159.26,18.64,12
55.33,161.09,18.62,12
61.84,161.16,18.63,12
62.23,161.11,18.65,12
51.68,163.82,18.65,12
60.71,161.14,18.64,12
66.86,162.13,18.64,12
61.94,164.55,14.92,12
62.62,164.7,18.65,12
56.82,164.73,0.62,12
59.39,161.13,18.65,12
60.34,161.1,18.63,12
61.6,164.44,15.07,12
60.11,161.06,18.88,12
49.74,157.84,1.05,12
66.34,163.38,18.68,12
60.65,164.88,18.7,12
59.98,158.23,18.82,12
59.86,161.05,18.81,12
66.0,163.75,18.69,12
65.24,158.4,19.07,12
55.74,161.03,18.64,12
67.06,160.38,18.64,12
65.17,164.19,18.71,12
55.58,164.57,18.65,12
50.17,158.52,18.63,12
66.73,162.38,18.64,12
65.68,164.07,18.7,12
49.88,157.58,18.76,12
57.03,161.0,18.86,12
57.69,159.29,18.64,12
57.17,164.66,0.71,12
63.72,164.68,18.67,12
50.44,160.31,18.65,12
59.22,164.72,18.67,12
50.11,157.68,18.73,12
52.47,164.32,18.62,12
64.68,164.08,5.68,12
59.86,161.13,18.65,12
63.55,164.48,1.13,12
66.91,158.26,15.01,12
66.91,158.64,15.23,12
66.76,159.01,5.38,12
66.82,159.97,14.57,12
60.46,158.41,19.09,12
56.71,158.32,19.09,12
63.32,164.69,18.63,12
58.63,163.8,18.66,12
61.42,164.91,18.73,12
57.0,159.71,18.79,12
60.58,159.71,18.64,12
56.44,159.3,18.64,12
60.73,159.37,18.64,12
65.66,164.0,18.73,12
60.3,164.9,18.72,12
59.15,160.8,18.7,12
58.04,164.87,18.73,12
54.71,164.06,18.64,12
59.98,158.19,18.75,12
58.75,165.0,18.64,12
56.0,164.63,18.64,12
57.56,157.69,18.74,12
64.68,164.42,18.65,12
60.46,158.4,19.08,12
58.87,164.81,18.68,12
51.92,158.32,19.09,12
62.12,159.72,18.65,12
50.55,161.89,18.6,12
55.82,159.64,18.62,12
60.68,159.62,18.62,12
54.46,159.57,18.62,12
58.3,164.71,18.7,12
62.69,159.65,18.63,12
61.0,159.92,19.52,12
59.52,160.07,18.79,12
56.49,159.53,18.63,12
56.86,164.74,18.72,12
58.03,164.03,18.68,12
56.71,158.33,19.07,12
64.68,164.4,18.64,12
60.18,159.83,18.8,12
54.22,159.84,19.02,12
61.58,159.43,18.64,12
50.31,162.06,18.63,12
66.79,160.57,0.81,12
53.84,160.26,19.87,12
50.25,158.33,16.96,12
50.31,161.58,16.96,12
50.31,157.85,15.0,12
51.3,163.31,15.0,12
50.46,162.04,17.45,12
50.74,162.58,15.02,12
50.35,160.42,6.75,12
50.39,160.4,16.39,12
50.51,161.77,9.8,12
50.36,160.35,12.89,12
50.52,161.77,12.91,12
50.5,161.81,15.38,12
50.32,159.84,11.66,12
50.24,159.01,17.15,12
51.03,162.86,12.31,12
50.25,158.88,10.57,12
50.32,158.85,13.6,12
7.57,142.35,11.66,5
4.05,142.4,24.35,5
2.96,141.85,34.58,5
2.46,141.65,34.58,5
2.34,141.85,34.58,5
2.12,141.89,34.58,5
2.09,142.06,34.58,5
1.96,141.73,34.58,5
1.95,140.13,34.58,5
3.86,142.38,29.51,5
1.17,140.97,34.58,5
0.78,140.76,34.58,5
0.76,140.08,34.58,5
7.07,142.5,0.65,5
2.5,142.63,7.14,5
2.89,142.61,7.45,5
2.35,142.66,6.04,5
9.78,142.43,1.74,5
1.28,142.64,7.06,5
1.93,142.38,11.88,5
9.02,142.21,0.75,5
3.52,142.6,6.84,5
2.93,142.4,19.35,5
7.39,142.31,16.74,5
7.4,142.35,11.9,5
2.7,141.65,34.58,5
1.65,140.08,34.58,5
0.95,140.87,34.58,5
1.97,142.43,31.57,5
6.04,142.69,0.68,5
1.94,142.43,16.88,5
7.38,142.52,7.27,5
7.98,142.61,6.33,5
0.29,142.46,0.71,5
7.15,142.42,9.27,5
2.24,142.43,9.25,5
8.92,142.38,7.53,5
2.89,141.79,34.58,5
2.65,141.22,34.58,5
2.27,141.79,34.58,5
2.16,142.16,34.58,5
2.16,141.98,34.58,5
2.07,141.81,34.57,5
2.07,141.43,34.58,5
1.88,139.53,34.58,5
1.77,140.69,34.58,5
1.71,139.91,34.57,5
5.65,141.93,34.58,5
1.38,140.76,34.57,5
1.29,141.39,34.58,5
0.94,140.31,34.58,5
0.9,141.41,34.58,5
0.82,140.85,34.57,5
0.8,139.97,34.58,5
0.77,141.59,34.58,5
0.71,141.78,34.58,5
0.69,139.97,34.58,5
0.65,140.78,34.58,5
0.65,140.19,34.58,5
0.63,140.52,34.58,5
2.11,142.7,0.64,5
3.02,142.66,0.65,5
6.28,142.77,0.66,5
0.63,142.66,0.65,5
6.68,142.71,0.64,5
3.12,142.63,7.33,5
2.4,142.6,7.31,5
1.89,142.63,5.36,5
3.15,141.73,34.59,5
2.79,141.87,34.58,5
1.4,141.86,34.58,5
1.64,142.7,5.39,5
5.94,142.38,2.5,5
5.86,142.63,5.66,5
9.9,142.62,7.2,5
8.71,141.33,34.58,5
8.03,141.75,34.59,5
7.77,141.67,34.58,5
7.57,141.7,34.58,5
7.51,141.89,34.58,5
5.42,141.66,34.58,5
4.49,141.87,34.58,5
3.54,141.7,34.58,5
9.76,142.4,1.18,5
5.48,142.44,2.04,5
1.64,142.4,12.36,5
5.33,142.44,2.66,5
3.3,141.84,34.58,5
0.41,142.02,34.58,5
0.41,140.0,34.58,5
7.37,142.39,26.69,5
7.39,142.39,21.8,5
9.8,140.91,34.6,5
2.54,142.39,16.82,5
7.21,141.89,0.64,5
6.09,142.47,24.1,5
7.34,142.37,31.55,5
5.69,141.48,34.93,5
6.06,142.43,31.21,5
4.22,142.25,34.26,5
8.21,142.35,9.13,5
3.32,142.41,9.22,5
6.06,142.54,11.84,5
2.3,142.4,11.63,5
8.15,142.54,6.86,5
7.22,142.45,0.96,5
6.11,142.47,19.16,5
10.14,141.42,34.58,5
10.12,140.18,34.58,5
10.09,140.75,34.57,5
6.71,142.4,27.14,5
9.83,140.69,34.58,5
9.2,141.81,34.58,5
8.26,141.51,34.58,5
8.24,141.93,34.58,5
7.81,141.52,34.58,5
7.65,141.79,34.59,5
7.44,141.78,34.58,5
6.68,141.22,34.58,5
6.47,141.56,34.58,5
6.19,142.16,34.58,5
6.57,142.42,31.74,5
5.53,141.56,34.59,5
5.23,141.56,34.58,5
5.17,141.81,34.58,5
4.73,141.43,34.59,5
4.25,141.79,34.58,5
4.21,141.92,34.58,5
3.78,141.41,34.58,5
3.78,141.21,34.58,5
3.62,141.78,34.58,5
3.43,141.43,34.58,5
3.41,141.78,34.58,5
6.39,142.47,0.89,5
5.54,142.49,0.84,5
2.46,142.72,7.07,5
2.88,142.57,6.16,5
8.28,141.78,1.22,5
8.63,123.34,17.93,5
2.58,141.54,34.58,5
0.46,140.7,34.59,5
0.3,141.94,34.59,5
0.29,140.73,34.6,5
0.3,139.94,34.61,5
10.1,141.48,34.54,5
8.67,142.07,34.58,5
4.64,142.07,34.58,5
3.82,142.63,7.22,5
3.15,142.15,34.58,5
9.93,141.41,34.62,5
2.18,142.38,8.14,5
4.45,142.51,30.01,5
4.78,142.58,0.65,5
5.01,142.45,1.16,5
0.46,141.87,34.58,5
5.05,142.75,0.69,5
6.67,141.91,0.7,5
9.73,140.08,34.59,5
8.16,142.57,5.14,5
6.75,141.76,1.13,5
7.81,142.69,6.26,5
8.44,141.64,34.58,5
0.38,141.64,34.57,5
0.28,141.07,34.59,5
9.86,142.54,1.03,5
9.86,137.42,1.0,5
10.29,125.09,0.66,5
10.24,138.35,0.64,5
10.25,126.21,0.64,5
10.01,127.39,0.96,5
9.88,125.19,1.01,5
9.83,137.45,1.0,5
0.72,123.23,26.27,5
9.6,125.89,1.17,5
4.1,142.72,0.67,5
9.69,137.99,1.52,5
2.31,142.08,34.58,5
2.09,142.06,34.58,5
1.5,141.7,34.58,5
1.45,142.03,34.58,5
0.76,142.09,34.58,5
1.77,139.85,34.58,5
1.76,135.82,34.58,5
1.61,139.71,34.59,5
1.6,139.83,34.59,5
1.18,138.96,34.58,5
1.17,136.93,34.58,5
0.96,139.31,34.58,5
0.95,135.28,34.58,5
0.86,139.49,34.58,5
0.76,139.88,34.58,5
0.76,136.05,34.58,5
0.74,136.59,34.58,5
0.64,139.66,34.58,5
0.63,135.63,34.58,5
3.13,131.79,34.58,5
0.76,130.0,34.58,5
0.76,132.02,34.58,5
2.96,129.76,34.58,5
1.91,131.19,34.58,5
0.86,131.43,34.58,5
2.11,131.17,34.58,5
2.15,130.69,34.58,5
0.75,134.57,34.58,5
3.27,132.53,34.58,5
0.96,131.25,34.58,5
1.96,129.64,34.58,5
2.45,129.57,34.59,5
2.34,129.76,34.58,5
2.34,131.77,34.58,5
1.6,134.29,34.59,5
1.17,128.88,34.58,5
0.63,131.6,34.58,5
2.53,128.88,34.58,5
3.09,129.53,34.58,5
2.38,130.54,34.59,5
2.31,129.99,34.58,5
1.17,132.91,34.58,5
0.76,125.97,34.58,5
3.13,123.73,34.58,5
0.76,127.99,34.58,5
0.76,123.76,34.58,5
2.16,123.57,34.58,5
2.93,124.21,34.58,5
2.69,124.34,34.58,5
2.11,127.14,34.58,5
0.95,127.22,34.58,5
3.3,125.72,34.58,5
3.27,128.5,34.58,5
2.55,126.87,34.58,5
3.27,124.47,34.58,5
2.34,125.73,34.58,5
1.6,127.74,34.58,5
1.64,125.42,34.58,5
2.7,124.53,34.58,5
1.96,125.61,34.58,5
1.29,131.44,34.58,5
2.46,125.54,34.58,5
2.3,125.96,34.58,5
2.77,123.91,34.58,5
1.16,124.84,34.59,5
1.61,142.08,34.6,5
1.63,138.91,34.59,5
1.48,138.09,34.58,5
3.29,132.08,34.58,5
2.08,130.24,34.58,5
3.22,130.84,34.58,5
1.66,132.02,34.58,5
2.99,128.84,34.62,5
2.43,132.08,34.57,5
3.02,132.05,34.6,5
3.28,124.02,34.58,5
2.07,126.21,34.59,5
1.99,123.65,34.58,5
1.66,123.96,34.58,5
1.66,128.0,34.58,5
2.71,125.53,34.58,5
3.16,124.5,34.58,5
2.59,124.0,34.59,5
1.47,132.09,34.57,5
1.5,134.11,34.6,5
1.51,130.08,34.59,5
2.71,128.98,34.69,5
1.8,130.87,34.6,5
1.8,132.84,34.59,5
1.47,124.04,34.59,5
1.47,128.06,34.58,5
1.51,126.05,34.57,5
0.15,134.8,34.61,5
2.16,141.98,34.59,5
1.7,142.3,34.58,5
1.62,141.93,34.58,5
0.95,142.3,34.58,5
1.88,137.52,34.58,5
1.88,135.5,34.58,5
1.85,139.17,34.58,5
1.85,138.51,34.58,5
1.85,135.14,34.58,5
1.77,138.67,34.58,5
1.77,136.66,34.58,5
5.65,133.88,34.57,5
1.37,136.73,34.59,5
1.29,139.38,34.58,5
1.24,139.6,34.58,5
0.95,138.29,34.58,5
0.94,136.28,34.58,5
0.91,139.77,34.58,5
0.91,137.76,34.58,5
0.91,135.75,34.58,5
0.8,137.96,34.58,5
0.8,135.94,34.58,5
0.65,138.78,34.57,5
2.84,131.54,34.62,5
2.82,131.84,34.61,5
2.61,131.35,34.58,5
2.86,131.72,34.58,5
2.62,131.55,34.58,5
0.79,131.92,34.59,5
0.71,131.71,34.58,5
0.65,134.74,34.57,5
0.66,130.69,34.56,5
2.59,131.09,34.64,5
2.87,129.3,34.62,5
2.59,132.74,34.59,5
2.15,131.91,34.58,5
3.02,131.85,34.58,5
2.16,129.9,34.58,5
2.07,133.37,34.58,5
3.03,129.83,34.58,5
2.27,129.7,34.58,5
0.94,132.25,34.58,5
6.31,131.71,34.58,5
2.03,132.12,34.58,5
2.58,128.71,34.59,5
0.9,133.35,34.58,5
2.63,130.1,34.59,5
3.26,131.88,34.58,5
0.95,130.23,34.58,5
0.9,129.33,34.58,5
0.95,134.26,34.58,5
2.31,128.93,34.58,5
3.26,131.13,34.58,5
1.77,134.64,34.59,5
1.77,130.61,34.58,5
1.29,133.34,34.58,5
1.85,129.45,34.61,5
2.04,133.92,34.58,5
3.03,127.81,34.58,5
2.83,127.81,34.59,5
0.79,127.89,34.58,5
0.64,126.42,34.58,5
2.83,128.51,34.58,5
0.71,127.68,34.58,5
0.65,126.66,34.57,5
7.06,129.83,34.58,5
2.15,127.89,34.58,5
2.16,123.86,34.58,5
3.01,123.79,34.58,5
2.27,123.65,34.58,5
2.02,123.85,34.58,5
2.09,127.49,34.58,5
0.94,128.22,34.58,5
0.9,125.3,34.58,5
0.71,127.33,34.58,5
1.16,127.67,34.58,5
1.16,123.64,34.58,5
1.21,125.46,34.57,5
0.94,124.19,34.58,5
3.13,124.56,34.57,5
1.77,124.57,34.58,5
2.57,125.43,34.59,5
1.77,126.58,34.58,5
1.29,125.28,34.58,5
1.29,127.29,34.58,5
2.33,142.27,34.58,5
1.84,137.95,34.58,5
1.8,139.56,34.57,5
1.8,135.53,34.59,5
1.49,138.74,34.58,5
1.4,137.83,34.58,5
2.89,132.63,34.61,5
2.52,129.78,34.6,5
2.52,131.85,34.6,5
1.49,130.68,34.58,5
1.49,134.71,34.58,5
1.4,133.8,34.58,5
2.9,128.6,34.59,5
2.52,127.82,34.59,5
1.49,126.65,34.58,5
2.79,125.75,34.58,5
2.87,124.57,34.58,5
2.77,124.16,34.58,5
2.51,125.73,34.58,5
1.98,142.08,34.58,5
1.77,137.32,34.58,5
0.68,137.53,34.58,5
0.63,136.26,34.57,5
0.68,129.47,34.58,5
1.99,133.98,34.56,5
2.17,132.38,34.59,5
1.4,131.53,34.57,5
1.81,133.3,34.59,5
2.01,124.21,34.57,5
3.1,125.28,34.58,5
1.39,127.5,34.58,5
1.13,135.71,34.58,5
0.8,133.63,34.59,5
0.81,129.6,34.58,5
2.02,133.68,34.62,5
2.04,129.68,34.58,5
7.86,138.79,39.01,5
7.58,139.77,39.0,5
7.44,138.98,39.12,5
7.42,138.32,39.02,5
7.17,138.82,39.15,5
7.1,138.49,39.08,5
7.01,138.28,39.03,5
6.88,138.93,39.13,5
6.72,138.44,39.06,5
6.59,139.68,39.03,5
4.34,138.48,39.06,5
3.35,138.48,39.02,5
3.16,139.48,39.05,5
3.08,138.92,39.0,5
3.52,131.63,34.58,5
4.79,130.0,34.58,5
4.79,132.02,34.58,5
6.14,132.01,34.58,5
7.16,131.79,34.58,5
4.49,131.8,34.58,5
4.49,129.78,34.58,5
3.54,133.64,34.58,5
4.13,131.93,34.58,5
6.72,132.39,34.58,5
9.67,131.65,34.58,5
9.15,130.53,34.59,5
6.19,131.18,34.58,5
7.85,130.22,34.58,5
3.82,130.22,34.58,5
9.35,131.43,34.58,5
6.58,130.9,34.58,5
3.52,123.57,34.58,5
7.55,123.57,34.58,5
0.76,123.96,34.58,5
7.16,123.73,34.58,5
4.79,127.99,34.58,5
7.16,127.76,34.58,5
7.56,125.58,34.58,5
4.49,123.74,34.58,5
4.48,125.75,34.58,5
7.51,123.95,34.58,5
7.33,123.69,34.57,5
3.54,125.58,34.58,5
3.48,127.98,34.58,5
4.13,123.87,34.58,5
6.3,124.39,34.57,5
9.93,126.66,34.58,5
7.86,125.19,34.57,5
7.38,127.23,34.58,5
1.61,135.68,34.58,5
0.45,125.75,34.59,5
0.41,127.91,34.58,5
2.27,124.39,34.57,5
1.97,127.78,34.58,5
3.84,138.69,39.12,5
3.74,139.54,39.1,5
7.32,132.08,34.58,5
7.71,130.8,34.58,5
9.73,132.02,34.58,5
5.69,132.02,34.58,5
7.32,124.02,34.58,5
7.32,128.05,34.58,5
5.55,142.66,0.63,5
1.61,138.06,34.58,5
3.28,132.08,34.58,5
7.2,130.83,34.58,5
8.51,128.15,35.45,5
3.23,130.84,34.58,5
10.14,129.33,34.58,5
10.1,132.45,34.57,5
10.1,130.44,34.58,5
10.09,130.67,34.58,5
10.13,125.31,34.58,5
10.12,124.06,34.58,5
6.86,138.44,39.05,5
3.81,139.75,39.04,5
3.02,138.0,38.87,5
2.79,138.35,38.88,5
4.92,131.54,34.59,5
4.92,131.71,34.59,5
4.92,129.7,34.59,5
5.16,131.7,34.59,5
4.92,133.35,34.59,5
4.67,132.46,34.57,5
8.7,128.71,34.58,5
4.67,130.44,34.58,5
8.71,132.72,34.58,5
4.9,128.98,34.63,5
8.71,130.71,34.59,5
4.91,132.65,34.58,5
8.39,129.84,34.58,5
4.9,130.98,34.58,5
7.46,129.34,34.58,5
7.87,131.9,34.58,5
4.41,131.57,34.58,5
6.1,129.34,34.58,5
3.84,131.9,34.58,5
3.43,129.34,34.58,5
5.14,132.46,34.58,5
9.01,130.23,34.58,5
4.74,131.36,34.58,5
7.7,132.25,34.58,5
5.12,130.22,34.6,5
4.37,127.83,34.58,5
4.9,128.61,34.59,5
7.39,128.44,34.58,5
7.39,124.41,34.58,5
4.67,124.41,34.58,5
8.7,126.42,34.58,5
9.55,125.44,34.58,5
5.52,125.44,34.58,5
4.66,128.44,34.59,5
8.71,124.69,34.57,5
4.67,126.42,34.58,5
3.59,124.58,34.58,5
8.39,125.81,34.58,5
8.71,126.69,34.59,5
4.37,123.8,34.58,5
5.2,125.65,34.58,5
3.85,123.84,34.58,5
7.46,125.31,34.58,5
7.05,123.79,34.58,5
3.43,125.31,34.58,5
3.85,127.86,34.57,5
5.24,125.46,34.57,5
8.96,125.3,34.57,5
1.87,139.37,34.58,5
1.16,139.76,34.58,5
8.96,141.41,34.58,5
0.58,137.96,34.58,5
0.3,135.89,34.59,5
3.36,128.7,34.6,5
3.33,132.29,34.58,5
3.26,131.88,34.58,5
2.84,130.76,34.59,5
2.81,132.54,34.59,5
2.81,132.22,34.6,5
2.81,130.48,34.59,5
2.81,130.21,34.58,5
2.59,133.48,34.59,5
2.58,130.44,34.59,5
2.1,131.33,34.58,5
2.0,130.46,34.57,5
0.91,133.73,34.58,5
0.3,131.87,34.59,5
0.3,123.81,34.59,5
2.8,128.2,34.61,5
2.59,128.23,34.58,5
0.8,123.86,34.58,5
2.16,125.86,34.58,5
2.27,125.67,34.58,5
2.89,125.67,34.58,5
1.62,125.81,34.59,5
3.27,127.85,34.58,5
2.84,123.79,34.58,5
10.1,128.41,34.57,5
8.74,142.25,34.58,5
8.46,138.83,38.88,5
5.19,131.54,34.59,5
10.02,129.9,34.59,5
4.74,132.24,34.59,5
4.73,130.22,34.59,5
9.54,130.68,34.58,5
6.82,129.78,34.58,5
4.61,131.91,34.58,5
6.8,132.22,34.58,5
5.52,130.67,34.58,5
5.3,132.67,34.57,5
5.52,126.64,34.58,5
1.84,140.29,34.58,5
2.88,132.65,34.63,5
7.14,139.09,39.14,5
3.85,139.12,39.13,5
5.39,131.6,34.59,5
8.74,130.22,34.58,5
4.71,124.17,34.59,5
5.47,135.57,37.0,5
6.72,138.68,39.11,5
7.67,138.53,39.01,5
9.79,132.84,34.58,5
2.69,127.97,34.67,5
3.25,128.68,34.57,5
10.14,133.37,34.58,5
9.42,137.83,34.58,5
9.48,138.74,34.57,5
0.77,133.76,34.59,5
4.99,127.09,34.58,5
1.8,123.44,34.57,5
5.1,130.61,34.59,5
5.41,127.5,34.58,5
9.9,139.18,34.58,5
0.27,127.32,34.59,5
2.8,131.24,34.56,5
2.86,128.6,34.57,5
4.76,127.68,34.57,5
7.39,132.73,34.58,5
2.52,138.76,38.88,5
9.36,137.37,34.58,5
6.82,125.75,34.58,5
7.56,129.61,34.58,5
3.42,138.94,39.08,5
3.09,128.4,34.58,5
0.46,127.77,34.58,5
9.68,133.76,34.58,5
2.54,129.7,34.58,5
9.55,134.71,34.58,5
2.5,130.25,34.58,5
9.2,135.73,34.58,5
0.3,125.82,34.59,5
9.21,137.75,34.58,5
0.52,129.09,34.58,5
2.16,139.3,38.7,5
9.9,135.15,34.58,5
2.01,124.22,34.57,5
9.85,138.99,1.03,5
9.64,128.59,1.19,5
10.03,136.97,1.05,5
10.26,124.27,1.0,5
2.09,142.29,34.58,5
1.95,141.72,34.58,5
1.64,137.52,34.58,5
2.96,133.79,34.58,5
2.53,132.91,34.59,5
2.08,134.23,34.58,5
1.6,131.77,34.58,5
2.15,125.58,34.58,5
0.99,127.59,34.58,5
1.88,126.66,34.58,5
0.73,126.52,34.59,5
2.34,127.75,34.58,5
1.6,126.23,34.58,5
1.39,129.57,34.58,5
1.61,123.59,34.58,5
2.72,133.58,34.62,5
3.09,124.38,34.59,5
0.29,123.21,0.7,5
1.52,136.95,34.58,5
1.4,140.13,34.58,5
1.41,136.1,34.59,5
2.16,142.17,34.59,5
0.86,138.69,34.58,5
3.19,132.8,34.58,5
2.83,133.85,34.61,5
2.6,131.14,34.62,5
2.17,134.11,34.59,5
1.38,132.71,34.58,5
0.65,126.69,34.58,5
0.65,128.72,34.58,5
2.58,129.43,34.62,5
1.24,127.51,34.58,5
2.73,124.67,34.58,5
1.84,136.26,34.58,5
0.58,127.49,34.59,5
1.95,125.88,34.59,5
1.95,129.91,34.58,5
7.56,133.64,34.58,5
9.67,127.62,34.58,5
8.16,131.92,34.59,5
4.19,135.2,37.35,5
3.68,126.77,34.58,5
4.49,133.81,34.58,5
3.98,139.6,39.08,5
3.74,132.56,34.58,5
0.41,131.94,34.58,5
0.07,138.72,0.67,5
4.73,134.25,34.59,5
7.4,134.17,34.58,5
10.14,127.31,34.58,5
7.45,140.38,38.88,5
7.4,142.23,34.58,5
6.58,139.51,39.07,5
3.41,133.73,34.58,5
4.33,136.54,36.99,5
8.4,133.87,34.59,5
7.06,133.86,34.58,5
3.73,133.11,34.57,5
6.1,133.37,34.58,5
8.44,127.54,34.58,5
9.26,133.52,34.57,5
4.97,124.19,34.57,5
7.76,133.11,34.58,5
3.36,132.73,34.59,5
4.92,133.73,34.59,5
0.39,142.28,34.63,5
8.4,131.86,34.58,5
5.02,131.43,34.65,5
3.43,135.19,37.28,5
2.69,134.32,34.7,5
1.93,142.37,34.58,5
2.83,133.8,34.61,5
0.29,127.84,34.58,5
8.81,132.12,34.58,5
3.22,127.13,34.61,5
9.86,126.44,1.0,5
9.86,138.14,0.99,5
10.09,140.91,0.95,5
8.78,123.34,19.71,5
10.0,129.95,0.92,5
2.28,134.35,36.16,5
0.65,137.3,34.58,5
9.44,123.11,0.71,5
7.64,123.48,0.65,5
7.37,123.12,0.64,5
2.44,123.46,34.58,5
1.7,123.46,34.58,5
7.38,123.4,0.67,5
2.8,123.48,34.58,5
0.74,123.19,23.42,5
1.33,123.6,34.58,5
8.81,134.02,34.58,5
6.93,123.31,16.12,5
9.92,123.39,1.09,5
5.12,129.25,34.65,5
4.0,123.6,34.58,5
8.06,123.61,34.6,5
3.8,134.13,35.1,5
6.84,123.48,34.57,5
7.99,123.1,5.42,5
4.62,123.44,34.58,5
8.42,134.12,35.12,5
2.56,134.94,37.02,5
4.74,123.31,0.88,5
5.52,123.32,26.89,5
10.22,124.26,0.9,5
7.44,123.35,16.05,5
8.76,123.34,22.24,5
8.76,123.34,7.57,5
8.73,123.12,7.02,5
7.27,123.09,7.17,5
9.5,123.35,1.24,5
9.89,123.32,1.98,5
6.8,123.15,7.42,5
7.43,123.36,20.96,5
6.89,123.31,21.77,5
7.36,123.38,16.8,5
6.91,123.37,16.77,5
6.9,123.35,11.93,5
5.27,123.17,7.69,5
6.07,123.26,26.38,5
8.18,123.33,21.33,5
6.09,123.26,24.06,5
6.08,123.22,21.55,5
6.11,123.23,19.17,5
6.07,123.22,16.62,5
7.16,123.3,14.15,5
7.16,123.3,9.23,5
8.9,123.33,23.18,5
6.57,123.31,26.85,5
6.6,123.29,24.44,5
9.8,123.38,18.13,5
9.8,123.37,15.7,5
9.81,123.4,13.2,5
6.59,123.33,19.49,5
9.81,123.37,10.81,5
7.75,123.11,6.94,5
8.22,123.35,9.13,5
8.18,123.36,11.55,5
6.75,123.3,28.3,5
6.07,123.3,28.89,5
7.22,123.3,28.88,5
5.48,123.65,2.04,5
7.17,123.32,23.94,5
6.08,123.3,11.61,5
6.76,123.11,6.6,5
6.1,123.28,9.32,5
6.93,123.36,20.96,5
6.96,123.35,25.87,5
7.4,123.32,12.0,5
6.92,123.34,11.17,5
8.42,123.38,28.38,5
8.63,123.3,28.15,5
8.63,123.31,23.24,5
9.61,123.17,7.02,5
5.94,123.31,27.56,5
8.64,123.34,30.24,5
5.61,123.26,4.07,5
7.08,123.38,8.11,5
9.52,123.09,15.69,5
9.46,123.16,10.49,5
27.57,125.7,18.59,15
26.94,128.48,18.59,15
26.63,126.91,0.64,15
29.55,123.67,18.59,15
27.93,127.89,18.71,15
27.2,126.69,18.59,15
28.33,128.15,19.02,15
26.94,126.39,18.59,15
29.92,125.06,18.59,15
33.21,123.55,18.59,15
31.26,126.67,20.12,15
33.99,123.89,18.59,15
31.29,124.06,25.41,15
34.09,124.95,18.59,15
26.98,127.49,18.59,15
30.37,123.89,25.47,15
26.87,126.69,18.6,15
29.78,124.54,18.61,15
34.45,123.56,18.59,15
30.31,123.45,25.5,15
27.34,128.78,1.63,15
31.91,124.56,18.63,15
33.48,128.67,19.03,15
28.69,128.68,19.03,15
34.71,126.55,18.6,15
31.31,126.0,18.59,15
31.43,123.45,25.55,15
34.06,125.06,18.59,15
33.95,128.9,18.72,15
31.89,122.48,18.56,15
30.97,122.8,25.48,15
26.93,125.96,18.58,15
34.45,127.7,18.6,15
33.83,127.83,19.05,15
34.73,126.29,18.59,15
27.69,124.91,18.99,15
30.0,129.73,19.62,15
33.48,128.68,19.03,15
34.75,122.36,18.6,15
33.44,122.36,18.61,15
30.93,123.45,25.71,15
29.42,122.92,1.02,15
31.53,122.57,14.52,15
27.05,125.83,0.62,15
31.74,122.54,21.85,15
33.72,121.62,0.64,15
30.11,129.75,21.22,15
34.27,129.69,20.44,15
33.94,128.88,18.68,15
34.46,125.32,18.93,15
32.32,122.65,14.97,15
32.56,122.46,17.4,15
28.69,128.68,19.03,15
28.05,123.78,9.71,15
30.84,122.51,6.83,15
34.41,122.37,0.66,15
29.91,122.84,1.75,15
30.62,122.56,2.26,15
30.14,122.54,14.49,15
32.02,122.55,2.12,15
31.05,123.47,18.62,15
30.61,122.82,2.77,15
30.54,122.49,11.89,15
30.54,122.58,14.52,15
31.13,122.14,18.72,15
35.99,122.45,0.64,15
29.0,123.06,11.42,15
34.54,122.67,0.91,15
31.27,129.76,21.07,15
32.38,129.77,21.93,15
31.36,122.4,22.9,15
33.53,129.74,21.16,15
33.54,129.67,20.64,15
33.65,129.76,21.96,15
33.77,122.54,1.6,15
31.11,122.63,15.04,15
31.91,122.77,2.84,15
34.21,129.71,20.16,15
30.79,122.32,22.61,15
32.85,129.77,21.83,15
33.98,129.75,21.29,15
34.36,122.55,18.67,15
32.92,122.38,0.67,15
31.13,122.61,5.41,15
33.86,122.62,15.05,15
66.63,153.52,29.93,13
57.42,147.66,34.82,13
57.54,149.75,34.82,13
54.5,148.57,34.82,13
57.42,141.77,34.82,13
56.4,150.41,29.93,13
61.5,153.17,29.93,13
60.88,152.63,30.03,13
58.33,153.69,23.9,13
64.34,143.43,29.93,13
57.58,149.66,30.33,13
64.52,144.64,30.02,13
65.06,147.49,30.3,13
65.06,143.22,30.29,13
52.82,149.11,26.79,13
62.11,153.49,12.85,13
68.63,146.39,12.93,13
60.09,153.53,12.91,13
60.12,153.51,22.91,13
63.96,153.51,28.01,13
58.54,149.68,30.07,13
61.81,153.51,17.88,13
58.18,143.96,34.82,13
65.33,149.19,29.93,13
55.81,153.52,17.92,13
52.96,152.7,27.55,13
67.68,153.46,10.28,13
55.53,150.37,29.93,13
56.16,149.66,30.06,13
64.81,143.15,30.31,13
63.79,142.57,30.3,13
63.79,146.83,30.3,13
60.73,150.61,29.94,13
60.66,142.9,32.92,13
52.81,151.07,0.65,13
58.15,149.82,29.93,13
64.88,142.6,30.33,13
62.2,152.88,31.33,13
60.66,149.84,29.95,13
65.03,146.83,30.3,13
57.77,149.65,34.83,13
56.2,150.58,29.93,13
60.92,149.43,29.96,13
64.16,147.39,30.32,13
63.94,146.82,30.3,13
60.84,142.46,32.93,13
64.41,145.54,30.53,13
67.94,144.26,27.74,13
65.03,150.41,29.93,13
62.52,148.06,29.92,13
67.5,147.24,28.66,13
67.58,140.39,27.74,13
61.31,152.93,30.44,13
68.57,142.58,29.93,13
67.95,152.89,29.93,13
62.51,145.37,29.93,13
64.21,140.3,29.92,13
68.32,140.45,29.93,13
60.59,142.69,32.92,13
64.22,144.58,29.9,13
60.0,142.55,32.91,13
60.72,147.81,29.93,13
52.83,152.3,29.93,13
60.44,145.25,29.93,13
68.41,140.69,29.93,13
68.41,145.0,29.93,13
65.73,144.68,29.93,13
59.51,149.64,29.97,13
60.11,143.34,32.92,13
60.9,149.9,29.94,13
60.67,142.44,32.92,13
63.78,141.96,30.3,13
63.78,146.21,30.29,13
65.03,142.57,30.3,13
60.93,148.34,29.93,13
68.47,150.37,29.93,13
64.39,142.09,30.4,13
60.94,146.99,29.94,13
65.33,144.88,29.93,13
60.01,142.05,32.92,13
65.33,140.56,29.93,13
59.57,153.52,27.44,13
63.02,152.87,31.27,13
64.97,142.92,30.32,13
60.7,150.12,29.94,13
64.15,150.38,29.93,13
60.9,148.6,29.94,13
60.74,142.97,32.92,13
61.64,145.42,30.75,13
60.19,143.07,32.92,13
67.99,153.67,0.78,13
64.65,150.5,29.93,13
60.33,141.85,32.92,13
59.77,142.11,32.92,13
60.12,142.69,32.92,13
65.61,144.7,29.93,13
59.6,141.68,32.92,13
60.68,142.44,32.92,13
59.63,142.78,32.92,13
66.63,140.58,27.74,13
60.79,143.31,32.92,13
66.63,144.89,27.73,13
59.76,143.35,32.92,13
60.04,142.05,32.92,13
68.57,143.52,29.93,13
60.3,142.82,32.92,13
66.53,146.02,28.09,13
66.54,148.78,29.35,13
66.84,143.74,27.74,13
60.8,146.98,29.96,13
60.78,142.69,32.92,13
68.64,140.51,27.5,13
62.0,145.53,29.93,13
61.02,149.19,29.93,13
60.9,148.36,29.92,13
60.87,148.38,29.93,13
60.69,148.12,29.93,13
60.64,147.88,29.93,13
59.63,143.2,32.92,13
59.63,141.82,32.92,13
58.09,142.35,34.82,13
68.44,149.84,29.92,13
64.46,142.11,30.4,13
68.95,148.89,7.98,13
68.74,143.48,12.1,13
68.83,144.95,6.88,13
68.89,145.38,6.93,13
68.63,144.49,15.04,13
68.63,147.33,5.08,13
68.59,139.62,10.37,13
52.94,152.46,11.25,13
52.79,152.42,10.73,13
57.54,149.76,34.83,13
60.81,152.29,30.01,13
63.64,145.38,30.27,13
64.96,149.4,29.93,13
66.45,153.61,0.65,13
64.12,149.85,29.93,13
61.02,153.51,29.93,13
64.35,146.49,30.39,13
60.7,153.66,17.1,13
66.86,148.48,29.22,13
58.96,153.35,29.93,13
65.32,146.0,29.96,13
65.06,144.93,30.28,13
60.73,148.95,29.93,13
60.64,142.08,32.92,13
68.47,146.06,29.93,13
60.96,150.6,29.93,13
60.81,149.4,29.96,13
55.65,140.58,31.26,13
60.88,150.11,29.93,13
59.78,140.69,29.93,13
60.07,142.99,32.93,13
64.0,141.97,30.38,13
68.92,148.62,7.93,13
68.76,145.64,17.09,13
68.74,142.07,9.62,13
68.65,143.16,17.69,13
64.41,146.87,30.53,13
63.75,140.67,30.27,13
65.03,146.22,30.3,13
67.54,147.97,28.96,13
62.06,146.68,30.14,13
67.48,150.1,29.75,13
58.42,138.51,0.65,13
53.69,140.57,29.94,13
63.95,144.89,29.92,13
55.58,138.41,0.64,13
61.02,144.88,29.93,13
67.37,149.73,29.64,13
63.63,152.89,29.93,13
60.02,147.74,29.94,13
66.86,145.64,28.04,13
60.32,138.37,0.64,13
53.7,138.56,0.65,13
63.97,146.89,30.36,13
56.43,140.33,29.93,13
66.42,147.67,29.94,13
63.75,140.67,30.27,13
65.05,147.48,30.29,13
63.54,146.76,29.98,13
55.63,139.21,29.92,13
65.05,144.64,29.93,13
54.62,138.53,0.65,13
58.56,138.63,0.65,13
58.03,140.6,31.18,13
55.57,140.29,29.96,13
61.48,138.66,12.83,13
64.64,138.44,28.68,13
61.52,151.19,31.81,13
55.46,153.61,29.93,13
64.72,144.98,30.36,13
56.55,140.8,31.31,13
61.44,151.15,31.35,13
64.64,144.93,29.93,13
57.7,140.63,32.07,13
53.92,138.65,4.65,13
56.13,138.5,7.08,13
62.05,146.7,30.11,13
61.44,138.64,25.39,13
56.85,153.63,29.94,13
63.73,138.64,23.22,13
55.57,138.63,28.05,13
55.54,138.61,10.0,13
53.61,138.45,5.89,13
53.82,138.6,10.05,13
54.25,138.56,0.64,13
55.93,138.6,4.69,13
68.26,146.29,29.66,13
68.26,141.98,29.66,13
52.78,152.71,26.36,13
52.83,151.84,7.15,13
52.71,152.81,7.32,13
52.92,152.39,21.31,13
61.12,149.85,29.92,13
52.95,151.33,25.0,13
52.95,148.71,20.05,13
52.96,148.77,17.52,13
52.91,147.75,17.58,13
52.93,151.95,4.7,13
52.96,148.7,10.04,13
52.94,148.71,15.02,13
52.92,152.41,27.96,13
52.86,152.41,25.65,13
52.89,152.36,20.6,13
52.91,152.35,18.06,13
52.78,152.58,8.24,13
55.47,122.51,11.82,17
56.43,127.7,11.75,17
53.34,123.46,11.84,17
59.67,123.21,11.82,17
58.27,123.55,11.81,17
56.31,122.99,11.82,17
58.29,123.09,11.82,17
59.58,124.1,11.81,17
59.67,122.57,11.82,17
58.79,122.9,11.82,17
57.34,123.79,11.81,17
59.41,122.8,11.82,17
58.59,123.51,11.81,17
58.28,122.73,11.82,17
54.83,123.21,11.82,17
58.95,123.31,11.81,17
54.64,123.85,11.81,17
53.26,128.14,11.74,17
57.68,123.91,11.81,17
54.68,123.08,11.82,17
51.66,128.13,11.74,17
56.82,122.86,11.83,17
55.35,123.83,11.81,17
59.05,123.15,11.81,17
52.64,125.39,11.78,17
59.39,123.53,11.81,17
59.98,122.82,11.82,17
59.75,123.78,11.81,17
52.87,123.29,11.81,17
55.78,122.53,11.83,17
56.81,123.45,11.82,17
59.77,123.03,11.82,17
59.2,123.09,11.82,17
51.89,123.08,11.81,17
49.9,128.23,11.74,17
48.6,122.51,11.84,17
50.17,124.03,11.8,17
48.52,126.98,11.76,17
50.99,123.68,11.81,17
49.25,123.19,11.82,17
49.66,123.17,11.82,17
47.69,128.71,11.75,17
58.0,122.5,11.84,17
49.06,127.47,11.75,17
50.32,124.32,11.8,17
46.81,122.47,11.78,17
48.53,125.55,11.79,17
50.59,124.25,11.79,17
48.12,122.66,11.82,17
51.2,125.42,11.78,17
49.0,126.93,11.76,17
52.46,124.03,11.8,17
51.37,129.51,11.72,17
48.91,127.2,11.76,17
58.64,122.62,11.82,17
47.49,129.27,11.73,17
49.82,129.4,11.72,17
51.3,123.29,11.81,17
49.8,127.92,11.74,17
51.6,123.08,11.82,17
60.27,123.01,11.82,17
46.86,129.42,11.72,17
59.58,123.76,11.8,17
46.97,129.69,11.72,17
57.74,122.99,11.83,17
46.68,129.93,11.72,17
50.88,123.27,11.81,17
56.21,122.82,11.82,17
49.88,123.03,11.92,17
60.44,127.1,11.76,17
59.88,121.57,11.9,17
59.14,130.13,11.81,17
59.63,125.0,11.79,17
59.64,125.76,11.78,17
59.6,124.49,11.8,17
60.12,129.48,11.78,17
60.06,125.91,11.77,17
60.1,125.0,11.79,17
60.14,128.6,11.73,17
60.06,122.18,11.84,17
52.86,128.11,11.74,17
46.4,121.87,11.81,17
58.25,128.25,11.74,17
53.6,123.17,12.35,17
58.04,127.14,11.76,17
50.51,121.88,11.81,17
60.29,123.81,11.82,17
53.74,129.77,11.75,17
46.85,123.43,11.81,17
