-57.32,-7.5,11.81,7
-55.6,-8.37,11.82,7
-56.74,-8.29,11.83,7
-53.84,-1.89,11.83,7
-53.57,-6.16,11.82,7
-41.52,-3.62,14.94,7
-41.57,-5.76,14.99,7
-41.88,-5.72,14.9,7
-48.73,0.64,12.77,7
-48.68,2.34,11.83,7
-49.29,1.35,11.84,7
-49.7,0.72,12.77,7
-49.97,2.34,11.83,7
-52.14,2.28,11.83,7
-50.84,-6.26,11.77,7
-48.64,-6.33,11.83,7
-47.95,-7.1,11.82,7
-55.02,2.28,11.83,7
-56.38,2.28,11.84,7
-48.62,2.07,11.84,7
-50.83,-7.94,11.82,7
-43.81,-1.63,14.9,7
-45.0,-9.58,12.88,7
-46.84,-6.28,11.82,7
-57.12,-0.93,11.82,7
-57.29,-8.69,11.83,7
-57.2,-6.75,11.83,7
-55.41,-7.77,12.95,7
-53.78,-8.08,11.83,7
-51.63,-4.03,11.82,7
-53.94,-1.33,12.04,7
-52.63,-8.5,11.82,7
-54.16,-4.62,11.83,7
-49.11,2.39,11.82,7
-50.59,2.28,11.83,7
-45.1,-6.27,11.83,7
-53.39,-1.18,12.03,7
-57.47,2.34,11.84,7
-57.47,-0.76,11.81,7
-48.64,-2.73,13.62,7
-51.82,-4.99,11.83,7
-43.5,1.2,14.92,7
-51.06,-4.18,12.77,7
-49.63,-2.99,12.77,7
-54.16,-8.06,11.82,7
-57.36,-4.03,11.84,7
-47.32,-4.7,12.77,7
-48.12,-3.24,12.77,7
-50.96,1.12,12.71,7
-51.8,-3.29,11.83,7
-55.35,-5.91,11.82,7
-55.62,-3.97,12.62,7
-54.88,-7.88,11.81,7
-57.87,-9.88,4.09,7
-49.92,-10.01,0.21,7
-55.53,-4.07,11.91,7
-55.79,-5.39,11.83,7
-58.0,-8.8,5.01,7
-54.59,-10.0,7.77,7
-51.92,-9.99,3.93,7
-53.76,-10.03,7.84,7
-51.28,-10.1,0.0,7
-56.71,-6.7,11.85,7
-55.73,-3.27,11.86,7
-55.55,-8.73,11.81,7
-55.79,-9.96,4.97,7
-43.98,-7.02,15.33,7
-41.22,-6.41,14.9,7
-40.36,-7.48,10.7,7
-47.8,-5.95,12.82,7
-50.99,-5.92,12.8,7
-51.83,-2.73,11.82,7
-46.37,-6.92,11.83,7
-46.52,-8.7,11.83,7
-47.74,-8.98,11.82,7
-47.79,-6.25,11.82,7
-51.35,-7.99,11.82,7
-52.78,-8.43,11.82,7
-52.81,-7.11,11.82,7
-53.06,-1.11,11.83,7
-53.58,-5.7,11.82,7
-54.27,-1.77,11.82,7
-55.13,-5.91,11.84,7
-54.69,-8.13,11.82,7
-54.16,-7.91,11.82,7
-45.44,-9.0,11.82,7
-46.22,-8.9,11.83,7
-50.2,-8.82,11.84,7
-50.48,-8.83,11.82,7
-52.82,-8.95,11.83,7
-55.99,-5.22,11.86,7
-53.69,-8.85,11.82,7
-55.1,-9.05,11.84,7
-55.09,-7.67,13.0,7
-49.47,-5.05,14.1,7
-41.25,-6.73,14.9,7
-43.26,-6.69,14.9,7
-42.7,-6.71,14.9,7
-46.74,2.4,11.83,7
-48.84,2.44,11.82,7
-50.83,2.41,11.82,7
-51.1,2.43,11.83,7
-49.52,1.55,11.83,7
-49.2,1.54,11.83,7
-48.94,1.55,11.82,7
-49.19,-5.79,12.78,7
-47.57,-6.1,11.82,7
-50.64,-6.09,11.82,7
-49.21,-6.15,11.83,7
-48.83,-2.47,12.75,7
-42.29,-7.47,11.06,7
-45.67,-9.98,8.66,7
-45.67,-10.03,0.02,7
-47.42,-9.99,3.94,7
-52.1,-9.24,11.81,7
-54.6,-9.99,7.75,7
-54.93,-8.27,11.82,7
-54.9,-8.1,11.82,7
-41.57,-5.75,14.91,7
-47.53,2.31,11.82,7
-48.68,2.35,11.82,7
-48.03,-6.2,11.83,7
-53.11,-5.74,11.83,7
-54.48,-9.98,5.38,7
-45.24,-7.36,11.81,7
-48.71,-6.4,11.81,7
-50.81,-6.27,11.83,7
-54.48,-10.0,9.24,7
-55.78,-9.99,9.2,7
-53.18,-9.22,11.74,7
-54.49,-9.75,1.08,7
-47.14,-5.83,12.73,7
-46.42,-3.49,11.82,7
-52.14,-4.31,11.8,7
-57.85,-9.92,0.5,7
-49.25,-6.01,12.65,7
-44.68,-10.02,3.99,7
-48.74,-10.03,7.82,7
-55.77,2.43,11.83,7
-52.42,-10.04,4.01,7
-55.42,-10.0,7.77,7
-41.51,-3.62,14.9,7
-46.87,-5.98,11.91,7
-50.26,-5.72,12.78,7
-48.74,0.63,12.76,7
-47.0,-5.53,11.82,7
-46.74,-5.89,11.83,7
-54.91,-8.57,11.82,7
-52.44,-10.03,7.85,7
-46.91,-2.83,11.84,7
-44.46,-7.53,7.61,7
-48.71,-4.72,12.81,7
-41.33,-5.4,14.93,7
-45.32,-10.05,11.14,7
-43.79,-7.41,7.71,7
-50.41,-10.07,-0.0,7
-46.17,-10.02,7.8,7
-55.52,-9.05,11.83,7
-53.46,-10.04,-0.02,7
-55.57,-9.92,3.48,7
-54.37,-10.08,0.03,7
-54.09,-9.89,1.35,7
-55.81,-9.24,11.82,7
-55.36,-10.03,11.11,7
-50.07,-10.09,0.03,7
-55.87,-9.95,3.89,7
-52.14,-10.0,2.55,7
-54.24,-9.96,3.91,7
-55.31,-9.97,7.74,7
-42.79,-6.26,14.9,7
-43.08,-5.66,14.9,7
-42.02,-6.05,14.9,7
-47.81,-6.05,11.93,7
-52.14,-2.5,11.82,7
-55.04,-8.75,11.82,7
-54.76,-8.83,11.83,7
-54.08,-8.78,11.82,7
-54.38,-4.82,11.84,7
-41.74,-5.55,14.99,7
-42.91,-5.03,14.9,7
-41.61,-9.38,8.26,7
-47.65,-10.03,11.41,7
-50.61,-4.65,12.81,7
-42.91,-9.28,8.1,7
-42.23,-7.44,13.43,7
-55.25,-8.39,11.79,7
-49.45,-5.05,14.04,7
-50.22,-6.2,12.59,7
-54.91,-4.1,12.54,7
-41.43,-6.54,14.9,7
-41.15,-6.57,14.9,7
-43.01,-6.59,14.9,7
-43.35,-7.45,14.07,7
-42.54,-6.57,14.91,7
-41.87,-7.4,7.71,7
-40.88,-5.98,14.93,7
-48.97,-10.11,10.95,7
-47.29,-3.35,12.81,7
-50.35,-5.76,12.77,7
-50.1,-6.02,12.73,7
-49.72,-5.73,12.76,7
-48.8,-6.0,12.69,7
-49.08,-6.03,12.73,7
-47.31,-6.0,12.71,7
-48.43,-6.01,12.61,7
-48.22,-6.02,12.71,7
-47.72,-6.0,12.68,7
-50.8,-6.03,12.73,7
-54.22,-9.24,11.83,7
-55.51,-10.06,3.08,7
-55.74,-9.85,1.94,7
-41.82,-5.46,15.36,7
-41.34,-7.36,13.94,7
-42.14,-7.37,13.94,7
-42.91,-6.49,14.9,7
-43.33,-6.54,14.9,7
-53.06,-9.18,11.79,7
-53.82,-9.19,11.82,7
-57.3,-9.99,11.04,7
-53.59,-10.01,11.08,7
-55.79,-9.97,8.8,7
-52.63,-10.0,3.37,7
-55.52,-9.07,11.95,7
-40.78,-6.19,15.09,7
-48.74,-6.49,11.81,7
-40.88,-5.19,14.9,7
-46.26,-8.84,11.85,7
-42.62,-6.41,14.9,7
-55.01,-4.8,11.79,7
-50.52,-6.02,12.74,7
-49.72,-5.85,12.45,7
-54.94,-7.74,11.83,7
-56.54,-9.22,11.87,7
-52.3,-10.01,11.07,7
-52.97,-10.06,9.49,7
-43.17,-7.33,14.09,7
-43.55,-9.24,8.03,7
-42.67,-7.41,14.04,7
-21.53,-1.9,21.81,8
-28.54,-3.3,21.61,8
-26.54,-4.28,21.45,8
-24.53,-3.16,21.63,8
-26.82,-2.69,21.71,8
-27.48,-5.58,21.24,8
-29.53,-5.59,21.24,8
-21.58,-4.31,21.44,8
-29.71,2.22,21.1,8
-23.44,-6.37,21.1,8
-22.58,-5.44,21.26,8
-24.51,0.71,21.36,8
-20.56,-1.18,21.68,8
-25.54,-3.12,21.64,8
-23.56,-2.29,21.77,8
-22.57,-2.47,21.74,8
-26.52,2.1,21.11,8
-22.57,-0.81,21.62,8
-23.54,1.76,21.18,8
-26.49,0.93,21.33,8
-29.52,-0.96,21.64,8
-26.54,-1.07,21.67,8
-31.53,-2.06,21.81,8
-22.55,1.85,21.18,8
-30.71,-5.29,21.28,8
-20.75,-3.1,21.64,8
-29.52,-3.13,21.64,8
-32.49,0.87,21.33,8
-26.99,-6.38,21.1,8
-21.9,-7.55,20.97,8
-20.75,0.71,21.36,8
-25.53,-1.25,21.7,8
-25.48,-1.93,21.83,8
-20.22,0.26,21.45,8
-23.81,-3.47,21.57,8
-30.49,-0.88,21.64,8
-31.55,-5.27,21.28,8
-28.18,-6.05,21.16,8
-20.74,-0.56,21.58,8
-29.72,1.57,21.21,8
-24.71,-0.88,21.63,8
-26.54,-5.64,21.22,8
-28.72,-0.57,21.58,8
-23.73,-5.65,21.23,8
-31.74,-0.91,21.64,8
-28.48,-4.15,21.47,8
-23.56,-1.24,21.7,8
-21.58,-3.09,21.64,8
-27.69,-0.47,21.56,8
-31.51,2.29,21.1,8
-28.47,0.57,21.39,8
-24.53,-2.46,21.74,8
-26.14,-5.04,21.32,8
-28.83,-5.6,21.24,8
-25.52,1.2,21.27,8
-24.99,1.51,21.22,8
-30.41,-1.47,21.74,8
-19.8,1.84,21.18,8
-31.96,0.09,21.47,8
-28.51,-4.74,21.37,8
-22.92,-7.54,20.99,8
-23.51,-4.93,21.34,8
-30.76,0.59,21.38,8
-24.93,-5.55,21.25,8
-20.32,1.29,21.26,8
-24.0,1.53,21.22,8
-25.03,0.3,21.43,8
-23.4,-3.84,21.52,8
-28.81,-2.16,21.82,8
-23.41,0.06,21.48,8
-29.52,-6.61,21.06,8
-26.54,1.65,21.2,8
-21.29,-3.77,21.53,8
-21.02,-7.5,20.99,8
-27.71,-0.61,21.59,8
-23.21,-0.58,21.56,8
-29.78,0.45,21.42,8
-30.5,0.16,21.44,8
-26.54,0.08,21.48,8
-28.71,1.35,21.26,8
-28.78,-0.17,21.48,8
-22.79,2.2,21.11,8
-21.57,-5.43,21.26,8
-29.18,-3.53,21.56,8
-31.53,1.56,21.21,8
-30.52,-6.21,21.13,8
-25.17,0.76,21.35,8
-27.36,-2.46,21.74,8
-21.53,-2.43,21.75,8
-29.48,-2.65,21.71,8
-22.19,-2.99,21.64,8
-27.5,-4.57,21.39,8
-26.88,2.28,21.09,8
-31.21,-5.0,21.33,8
-30.71,-4.68,21.37,8
-22.76,-4.38,21.42,8
-26.78,-3.25,21.62,8
-27.04,-1.91,21.8,8
-29.11,-1.77,21.78,8
-22.1,-1.98,21.81,8
-21.57,1.27,21.26,8
-23.15,-4.48,21.42,8
-24.23,-3.49,21.58,8
-28.19,0.32,21.43,8
-24.46,-1.93,21.82,8
-27.07,1.94,21.14,8
-21.15,-3.15,21.62,8
-23.51,2.58,21.04,8
-20.84,-4.05,21.48,8
-22.33,-7.53,20.98,8
-26.77,-2.25,21.78,8
-22.84,-3.19,21.63,8
-28.98,-4.5,21.41,8
-26.17,-4.15,21.47,8
-26.33,0.5,21.4,8
-28.03,-5.4,21.27,8
-26.15,1.41,21.23,8
-32.49,-0.89,21.64,8
-27.49,-3.74,21.54,8
-21.58,2.38,21.07,8
-26.5,-5.14,21.31,8
-22.36,-0.2,21.54,8
-25.53,0.21,21.44,8
-22.83,0.04,21.47,8
-29.46,0.28,21.42,8
-25.86,-6.05,21.16,8
-20.88,-0.26,21.53,8
-26.88,2.61,21.03,8
-29.77,-1.26,21.69,8
-26.76,1.13,21.29,8
-28.73,-2.93,21.67,8
-20.75,2.6,21.04,8
-23.81,-3.06,21.64,8
-21.79,-1.71,21.78,8
-25.05,-1.19,21.69,8
-22.54,1.52,21.22,8
-30.71,1.32,21.26,8
-29.71,-5.91,21.18,8
-23.5,-3.22,21.63,8
-22.86,-7.19,20.99,8
-21.57,-1.46,21.74,8
-20.75,1.53,21.22,8
-22.55,0.24,21.44,8
-21.77,-5.25,21.28,8
-23.51,-2.67,21.7,8
-25.54,-4.87,21.33,8
-26.09,-1.42,21.72,8
-24.87,-0.25,21.52,8
-20.79,-2.14,21.8,8
-31.74,-2.91,21.67,8
-23.88,1.82,21.2,8
-22.54,-0.52,21.57,8
-26.28,-5.45,21.26,8
-20.55,-3.97,21.55,8
-27.75,-4.3,21.45,8
-21.32,-2.17,21.79,8
-36.34,-0.1,30.36,8
-20.44,0.66,21.35,8
-24.52,-3.57,21.56,8
-22.96,-6.75,21.05,8
-20.54,-3.39,21.58,8
-25.09,-1.47,21.74,8
-26.01,1.06,21.31,8
-22.55,-4.92,21.34,8
-25.26,-3.52,21.57,8
-21.76,-5.88,21.18,8
-21.55,-3.59,21.56,8
-36.18,0.89,30.36,8
-30.99,1.2,21.27,8
-25.84,-3.07,21.65,8
-26.55,-2.87,21.68,8
-22.78,-5.68,21.2,8
-20.15,-0.12,21.5,8
-36.35,0.42,30.36,8
-24.06,1.07,21.3,8
-24.75,2.01,21.11,8
-29.53,2.04,21.14,8
-32.3,-0.37,21.55,8
-21.8,-3.28,21.6,8
-25.41,-5.5,21.24,8
-30.76,-3.41,21.58,8
-28.75,-4.05,21.47,8
-22.56,-2.17,21.79,8
-24.25,-6.42,21.1,8
-36.43,0.17,30.36,8
-20.85,-0.78,21.62,8
-27.08,-2.67,21.71,8
-21.95,-1.45,21.74,8
-30.75,1.84,21.17,8
-39.02,-5.58,20.9,8
-28.39,-5.52,21.25,8
-24.37,-2.2,21.78,8
-21.55,0.08,21.47,8
-20.56,0.05,21.48,8
-31.73,-2.4,21.76,8
-23.55,-5.21,21.29,8
-22.84,-0.17,21.53,8
-25.3,-1.78,21.79,8
-30.51,-3.36,21.6,8
-30.39,-5.15,21.3,8
-26.55,1.43,21.24,8
-37.9,0.03,31.25,8
-27.0,1.16,21.28,8
-21.55,0.51,21.39,8
-25.54,-1.46,21.73,8
-25.76,-1.41,21.72,8
-20.77,0.93,21.33,8
-22.29,-1.87,21.8,8
-25.98,2.13,21.12,8
-28.34,-2.05,21.81,8
-23.77,-2.82,21.69,8
-21.59,0.31,21.43,8
-25.88,0.55,21.39,8
-20.47,2.08,21.11,8
-21.12,-2.07,21.81,8
-31.53,-0.84,21.63,8
-26.5,-3.72,21.55,8
-26.54,1.86,21.17,8
-22.56,-4.32,21.44,8
-31.06,-5.77,21.2,8
-27.46,-5.95,21.1,8
-25.74,-4.15,21.48,8
-24.71,-1.66,21.77,8
-24.51,-1.68,21.77,8
-24.52,2.45,21.06,8
-20.56,2.54,21.04,8
-29.44,-1.11,21.66,8
-21.57,-2.65,21.71,8
-21.8,-4.23,21.46,8
-33.33,2.86,16.85,8
-25.66,0.5,21.41,8
-23.64,-0.37,21.55,8
-21.68,0.84,21.34,8
-29.59,2.83,16.28,8
-22.66,-3.93,21.51,8
-28.62,1.8,21.17,8
-24.6,-1.51,21.71,8
-30.62,1.64,21.19,8
-28.2,2.84,16.31,8
-28.04,1.02,21.31,8
-20.65,1.84,21.16,8
-25.64,-0.53,21.57,8
-21.67,1.97,21.15,8
-28.31,-2.37,21.76,8
-22.2,-6.36,21.11,8
-29.64,-4.24,21.47,8
-20.65,-4.48,21.41,8
-19.78,2.36,21.08,8
-27.41,-1.75,21.79,8
-24.61,-4.05,21.49,8
-22.65,2.86,20.99,8
-27.32,-4.14,21.47,8
-38.0,-0.28,31.25,8
-29.09,-6.37,21.1,8
-36.14,2.88,21.07,8
-23.17,0.16,21.45,8
-21.36,-0.08,21.5,8
-26.23,-1.84,21.8,8
-29.87,-4.26,21.45,8
-24.63,2.3,21.08,8
-31.18,2.91,20.98,8
-27.79,-2.72,21.7,8
-24.07,-6.74,21.04,8
-27.89,1.97,21.15,8
-25.05,-0.51,21.57,8
-28.37,2.9,20.97,8
-28.13,-6.67,21.06,8
-35.74,0.61,30.36,8
-35.08,-2.8,30.2,8
-30.86,-5.85,21.18,8
-26.09,0.24,21.44,8
-26.21,2.86,20.98,8
-28.18,-1.89,21.8,8
-24.2,-1.29,21.71,8
-20.23,2.23,21.1,8
-27.33,-0.23,21.52,8
-22.17,-3.65,21.55,8
-26.63,-6.15,21.14,8
-26.08,-3.71,21.54,8
-31.08,1.47,21.23,8
-27.77,-5.95,21.18,8
-23.27,-0.92,21.64,8
-25.16,-5.0,21.33,8
-23.37,0.44,21.4,8
-24.14,0.81,21.35,8
-25.43,-0.91,21.64,8
-22.68,-6.42,21.1,8
-26.34,2.41,21.07,8
-23.57,-7.17,20.99,8
-22.19,-5.16,21.29,8
-25.39,-4.5,21.4,8
-29.11,-5.34,21.27,8
-23.77,-6.2,21.15,8
-21.22,0.64,21.38,8
-25.85,-4.34,21.44,8
-26.43,-2.23,21.78,8
-26.82,-3.82,21.52,8
-28.81,-2.54,21.73,8
-24.93,-3.51,21.57,8
-38.82,0.44,30.36,8
-28.2,1.94,21.13,8
-20.35,-4.45,21.42,8
-25.24,-3.86,21.54,8
-28.21,-0.81,21.62,8
-26.01,-2.05,21.8,8
-28.96,-5.92,21.17,8
-20.9,-3.71,21.54,8
-23.15,-6.46,21.08,8
-28.65,-1.42,21.72,8
-26.34,-3.89,21.51,8
-25.17,-5.67,21.22,8
-23.41,-4.39,21.43,8
-21.22,0.4,21.42,8
-26.24,0.86,21.33,8
-31.25,-6.18,21.14,8
-32.14,-0.07,21.49,8
-24.02,-3.65,21.56,8
-21.35,-4.24,21.45,8
-25.19,-0.85,21.63,8
-20.42,1.81,21.17,8
-28.26,-5.82,21.19,8
-21.01,0.71,21.36,8
-28.86,-0.45,21.55,8
-26.33,-4.98,21.31,8
-32.11,0.2,21.43,8
-27.63,-5.39,21.27,8
-20.33,-0.05,21.49,8
-26.41,-0.07,21.5,8
-27.24,-3.32,21.61,8
-26.05,-3.24,21.62,8
-27.82,-2.5,21.73,8
-27.7,-2.6,21.72,8
-30.71,-3.74,21.54,8
-31.53,-2.25,21.78,8
-19.77,-1.95,21.82,8
-26.54,-3.45,21.58,8
-26.73,-1.72,21.77,8
-20.55,-2.9,21.67,8
-31.71,-1.1,21.67,8
-28.49,1.75,21.18,8
-30.69,-2.48,21.74,8
-32.31,-1.94,21.81,8
-21.58,-0.11,21.5,8
-21.58,-1.94,21.83,8
-31.14,-1.37,21.71,8
-32.09,-4.15,21.47,8
-31.46,-5.97,21.17,8
-24.72,-1.41,21.73,8
-27.73,-1.16,21.66,8
-31.5,-4.26,21.45,8
-19.77,-3.74,21.54,8
-20.31,1.3,21.26,8
-25.55,0.4,21.41,8
-32.73,-2.31,21.77,8
-31.52,1.77,21.17,8
-20.57,-2.29,21.77,8
-31.16,-7.01,21.0,8
-26.49,2.59,21.04,8
-22.02,-0.52,21.57,8
-21.53,-7.04,20.99,8
-31.54,-4.69,21.38,8
-31.95,-5.98,21.17,8
-29.13,-1.37,21.72,8
-31.78,-3.47,21.58,8
-20.28,-7.5,21.01,8
-22.56,-4.92,21.35,8
-21.54,-4.82,21.37,8
-30.02,-4.53,21.41,8
-27.79,2.09,21.13,8
-28.89,-2.09,21.8,8
-19.51,-4.13,21.45,8
-32.1,-3.49,21.58,8
-29.25,-4.11,21.48,8
-28.79,0.34,21.43,8
-19.57,-1.64,21.76,8
-22.52,-3.19,21.61,8
-20.77,-3.25,21.61,8
-32.49,-1.23,21.7,8
-22.18,-4.23,21.46,8
-20.07,-2.31,21.77,8
-28.89,-1.14,21.68,8
-25.54,2.06,21.14,8
-31.84,-2.04,21.81,8
-32.32,-2.46,21.74,8
-21.8,-5.7,21.19,8
-31.75,-4.02,21.49,8
-21.56,2.04,21.13,8
-20.84,-1.91,21.81,8
-30.42,-4.03,21.5,8
-21.57,1.58,21.2,8
-30.74,-4.09,21.49,8
-19.57,-2.36,21.76,8
-29.51,2.85,19.86,8
-21.67,-1.36,21.71,8
-32.46,-5.74,21.22,8
-19.66,-3.13,21.61,8
-33.19,-2.84,21.69,8
-19.78,-6.75,21.05,8
-25.66,-5.0,21.32,8
-25.39,2.87,20.99,8
-30.77,-4.49,21.41,8
-32.22,-6.9,21.02,8
-25.64,-0.12,21.5,8
-21.67,2.38,21.1,8
-23.99,-2.15,21.8,8
-32.5,-4.49,21.41,8
-31.23,-3.58,21.56,8
-22.65,2.42,21.07,8
-19.78,2.36,21.08,8
-33.18,-1.73,21.78,8
-25.88,-2.89,21.68,8
-27.13,-2.35,21.76,8
-20.87,1.57,21.21,8
-21.06,0.02,21.48,8
-32.02,-2.64,21.71,8
-21.18,-1.06,21.67,8
-27.62,-4.19,21.46,8
-19.91,-2.61,21.72,8
-21.34,-1.6,21.76,8
-25.56,-1.02,21.65,8
-24.54,1.55,21.22,8
-25.73,-6.64,21.06,8
-24.73,-5.48,21.24,8
-19.55,-5.33,21.29,8
-30.69,-2.64,21.72,8
-24.69,-1.29,21.71,8
-25.74,-3.76,21.53,8
-29.7,1.75,21.19,8
-33.19,-0.71,21.61,8
-32.97,-4.18,21.41,8
-25.73,-1.62,21.75,8
-19.58,-1.46,21.74,8
-19.44,-6.23,21.13,8
-22.56,-4.91,21.35,8
-25.56,-6.1,21.14,8
-22.35,2.4,21.07,8
-27.47,-5.05,21.32,8
-22.22,-6.89,21.02,8
-30.71,2.71,21.02,8
-26.77,0.43,21.41,8
-22.45,-0.87,21.63,8
-32.96,-1.79,21.8,8
-31.35,-3.86,21.51,8
-30.62,-3.66,21.55,8
-20.66,-3.47,21.59,8
-27.01,-3.06,21.65,8
-19.58,-6.99,21.0,8
-25.66,-3.19,21.62,8
-35.45,-0.15,30.35,8
-32.16,-1.83,21.79,8
-29.18,-1.87,21.8,8
-32.62,-2.72,21.7,8
-33.21,-0.36,21.52,8
-31.52,-0.21,21.53,8
-23.53,-4.92,21.34,8
-29.53,-0.96,21.66,8
-24.69,-5.15,21.31,8
-22.58,1.08,21.32,8
-23.53,-5.67,21.22,8
-28.54,0.73,21.36,8
-19.88,-0.56,21.58,8
-28.42,-3.45,21.56,8
-33.2,-3.38,21.58,8
-32.05,-6.53,21.08,8
-19.64,2.53,20.99,8
-19.57,-1.26,21.7,8
-33.18,-2.43,21.75,8
-33.2,-0.71,21.6,8
-29.4,-1.63,21.75,8
-36.54,-9.07,21.63,8
-19.16,-6.21,19.39,8
-21.67,-0.9,21.64,8
-24.61,1.71,21.21,8
-20.66,0.81,21.35,8
-22.66,-0.02,21.5,8
-25.64,-5.8,21.21,8
-18.97,0.52,21.39,8
-25.64,1.17,21.26,8
-35.12,-2.17,21.04,8
-30.85,-6.41,21.1,8
-19.32,-0.07,21.5,8
-35.97,-8.28,21.1,8
-28.49,-1.22,21.7,8
-28.84,-3.35,21.6,8
-19.59,-0.13,21.49,8
-19.51,-4.13,21.46,8
-19.53,-0.65,21.6,8
-19.05,-0.94,21.64,8
-19.57,-3.39,21.59,8
-19.05,-1.75,21.06,8
-19.66,-5.52,21.24,8
-19.59,0.62,21.36,8
-18.24,-4.41,1.64,8
-18.5,2.32,-0.0,8
-19.85,-3.32,21.61,8
-18.97,0.81,21.32,8
-19.68,-2.72,21.71,8
-23.1,-8.98,18.71,8
-38.71,-3.98,22.63,8
-22.83,-3.79,21.53,8
-21.9,-7.54,20.98,8
-29.52,-2.92,21.66,8
-37.81,-9.09,21.58,8
-24.53,1.73,21.2,8
-23.52,-7.53,20.99,8
-23.39,-3.85,21.52,8
-23.2,-6.88,21.02,8
-31.52,-3.34,21.6,8
-28.52,-0.74,21.62,8
-22.34,-7.51,20.99,8
-26.97,-5.97,21.17,8
-31.72,0.07,21.46,8
-21.77,-2.23,21.79,8
-28.83,-5.6,21.23,8
-27.96,-5.27,21.29,8
-30.15,-3.88,21.51,8
-22.51,-5.86,21.19,8
-37.61,-9.95,21.04,8
-22.03,-4.5,21.42,8
-25.9,-0.04,21.48,8
-23.8,-6.84,21.03,8
-22.77,-0.26,21.52,8
-21.07,-3.6,21.56,8
-26.88,2.61,21.03,8
-30.46,-9.02,18.78,8
-31.75,1.9,21.15,8
-22.38,-7.25,21.0,8
-23.43,-3.5,21.56,8
-23.89,0.92,21.32,8
-28.17,-6.3,21.12,8
-20.56,-2.13,21.79,8
-37.64,-8.84,21.6,8
-27.05,-2.13,21.8,8
-30.5,-4.71,21.39,8
-23.19,-6.23,21.14,8
-21.78,-1.28,21.7,8
-25.54,-3.34,21.6,8
-26.23,0.36,21.42,8
-28.46,-3.1,21.64,8
-26.35,-2.04,21.8,8
-28.78,1.66,21.19,8
-26.38,0.16,21.48,8
-21.41,-1.33,21.72,8
-21.56,-1.29,21.69,8
-21.58,-4.5,21.4,8
-22.49,-5.29,21.28,8
-21.67,-5.79,21.2,8
-24.62,-5.53,21.23,8
-21.67,1.77,21.18,8
-24.63,-9.44,18.63,8
-37.28,-10.44,21.04,8
-28.21,-1.6,21.76,8
-30.13,-5.02,21.33,8
-25.71,2.46,21.06,8
-26.19,-2.53,21.73,8
-37.47,-9.07,21.62,8
-29.79,2.8,21.01,8
-30.59,-5.03,21.34,8
-28.82,1.28,21.26,8
-26.3,-4.37,21.43,8
-26.34,2.41,21.07,8
-38.92,-0.32,24.46,8
-37.14,-9.01,21.67,8
-37.4,-8.46,21.68,8
-25.64,-6.0,21.17,8
-20.79,-3.56,21.59,8
-26.1,-3.98,21.5,8
-27.34,-5.72,21.21,8
-36.04,0.81,30.36,8
-25.38,-1.35,21.71,8
-20.39,0.3,21.43,8
-28.08,-6.22,21.13,8
-21.91,-1.84,21.8,8
-21.96,-1.66,21.77,8
-30.87,-4.21,21.46,8
-26.87,-1.87,21.8,8
-35.64,0.36,30.36,8
-18.04,-0.17,19.07,8
-31.71,-0.23,21.52,8
-23.52,0.03,21.47,8
-32.59,-6.64,21.06,8
-28.72,1.91,21.16,8
-24.52,-4.14,21.47,8
-19.79,-2.98,21.66,8
-32.08,-5.11,21.3,8
-21.02,-7.49,20.99,8
-25.73,-5.18,21.31,8
-23.82,-3.47,21.57,8
-22.17,-5.45,21.26,8
-24.93,-0.61,21.59,8
-23.76,-3.78,21.53,8
-32.01,-3.84,21.52,8
-25.46,1.55,21.22,8
-29.63,1.97,21.15,8
-26.62,-9.43,18.62,8
-32.02,-7.37,20.99,8
-33.88,-7.05,18.53,8
-28.32,-2.78,21.7,8
-28.18,2.85,20.99,8
-26.39,-1.84,21.79,8
-20.06,-4.19,21.42,8
-27.27,-2.2,21.79,8
-22.97,-9.34,18.57,8
-20.23,-7.36,20.99,8
-32.84,-2.02,21.81,8
-33.51,-5.91,18.53,8
-21.6,-1.95,21.82,8
-28.71,1.1,21.29,8
-20.28,-7.52,20.98,8
-30.68,-1.62,21.76,8
-25.73,-4.87,21.35,8
-19.76,-3.44,21.58,8
-23.16,-1.73,21.77,8
-27.51,-1.32,21.72,8
-33.93,-8.17,18.53,8
-31.92,-2.57,21.73,8
-36.19,-9.08,21.54,8
-22.94,-4.89,21.34,8
-34.57,-7.4,18.53,8
-19.12,-3.6,21.59,8
-32.5,-6.46,21.07,8
-19.35,-2.48,21.64,8
-19.62,0.53,21.39,8
-27.6,2.37,21.09,8
-34.02,-7.51,18.53,8
-23.24,-9.49,18.61,8
-32.69,-6.88,21.0,8
-22.73,-8.86,18.53,8
-31.25,-7.16,20.99,8
-31.54,-1.8,21.8,8
-28.5,-1.17,21.68,8
-30.7,-0.05,21.49,8
-19.54,-7.53,20.98,8
-20.83,-1.48,21.73,8
-19.13,-2.57,19.76,8
-36.97,-8.6,21.68,8
-29.54,-5.23,21.3,8
-29.62,-3.28,21.61,8
-36.85,-8.21,21.67,8
-18.59,-3.95,8.99,8
-35.04,-0.84,21.07,8
-21.67,-2.34,21.76,8
-18.37,-2.13,-0.09,8
-19.19,-2.16,19.79,8
-17.87,-3.36,1.71,8
-19.76,2.44,21.05,8
-21.58,0.73,21.36,8
-23.56,-0.52,21.58,8
-21.52,-2.1,21.79,8
-25.74,1.8,21.17,8
-26.55,-2.32,21.76,8
-20.53,1.89,21.16,8
-22.07,-1.77,21.78,8
-25.29,-0.98,21.65,8
-27.3,-2.46,21.74,8
-25.07,-0.97,21.65,8
-20.14,-8.06,18.53,8
-21.56,-5.29,21.28,8
-20.26,-7.94,18.53,8
-22.08,-3.55,21.57,8
-22.02,-4.07,21.48,8
-22.1,-3.81,21.53,8
-21.94,-6.04,21.16,8
-22.58,-5.2,21.32,8
-24.22,-6.15,21.14,8
-25.21,-4.87,21.35,8
-24.39,-9.14,18.58,8
-25.8,-4.17,21.47,8
-25.8,-5.94,21.18,8
-24.75,-8.03,18.53,8
-26.21,-3.9,21.51,8
-26.76,-5.78,21.21,8
-25.86,-7.75,18.54,8
-27.77,1.79,21.18,8
-28.71,-2.37,21.76,8
-29.47,1.96,21.16,8
-31.52,-0.22,21.52,8
-27.86,-6.55,21.07,8
-28.04,-4.43,21.42,8
-28.98,-5.24,21.29,8
-29.75,-4.15,21.47,8
-30.71,-5.81,21.19,8
-31.46,-3.83,21.52,8
-30.37,-8.1,18.53,8
-31.53,-2.84,21.66,8
-30.4,-7.84,18.54,8
-31.94,-8.15,18.53,8
-32.15,-8.16,18.54,8
-32.94,-7.95,18.54,8
-32.96,-8.38,18.53,8
-33.13,-8.05,18.54,8
-33.24,-7.71,18.53,8
-33.42,-8.01,18.53,8
-33.74,-7.06,18.53,8
-29.69,-10.27,9.75,8
-37.28,-6.72,21.66,8
-37.29,-9.01,21.65,8
-37.21,-8.16,21.68,8
-37.43,-6.93,21.59,8
-37.43,-7.93,21.6,8
-36.09,-7.93,21.54,8
-36.1,-6.37,21.56,8
-37.64,-8.66,21.6,8
-37.95,-9.81,21.04,8
-38.02,-10.27,21.04,8
-25.44,0.51,21.4,8
-25.95,-2.68,21.71,8
-26.86,-3.94,21.5,8
-28.42,1.85,21.16,8
-37.7,-0.21,31.23,8
-37.81,-6.81,21.57,8
-33.67,-8.16,18.56,8
-37.81,-8.1,21.59,8
-37.0,-6.3,21.68,8
-25.18,-7.01,21.03,8
-28.49,-6.98,20.94,8
-25.4,-1.13,21.68,8
-22.41,-2.22,21.78,8
-26.07,1.54,21.22,8
-25.15,-1.09,21.67,8
-22.43,-2.51,21.74,8
-22.13,-2.13,21.81,8
-20.97,-2.21,21.78,8
-22.82,2.41,21.07,8
-19.77,-7.58,18.53,8
-21.93,-4.13,21.47,8
-22.15,-4.13,21.47,8
-24.33,-6.27,21.12,8
-24.01,-9.3,18.54,8
-24.26,-9.29,18.53,8
-25.94,-2.96,21.65,8
-26.42,-4.43,21.42,8
-25.6,-7.59,18.54,8
-25.64,-8.67,18.53,8
-26.85,-5.47,21.26,8
-26.21,-8.29,18.53,8
-27.39,-6.07,21.15,8
-29.25,-1.39,21.72,8
-35.89,1.21,30.37,8
-36.35,0.29,30.36,8
-38.0,-0.26,31.25,8
-28.09,-5.98,21.17,8
-28.81,-5.32,21.28,8
-28.33,-8.36,18.53,8
-29.64,-7.29,20.99,8
-30.22,-5.21,21.29,8
-30.54,-5.37,21.27,8
-30.9,-3.34,21.6,8
-30.81,-5.76,21.2,8
-31.43,-5.36,21.27,8
-32.2,-6.52,21.08,8
-31.83,-8.04,18.54,8
-32.17,-8.35,18.54,8
-32.45,-8.19,18.53,8
-32.85,-8.22,18.54,8
-33.04,-7.83,18.53,8
-33.27,-7.89,18.53,8
-36.57,-8.54,21.69,8
-37.27,-5.98,21.66,8
-36.92,-6.72,21.65,8
-36.72,-8.93,21.64,8
-37.51,-8.26,21.64,8
-37.28,-10.44,21.04,8
-37.56,-10.4,21.04,8
-38.12,-10.41,21.05,8
-25.2,0.26,21.43,8
-22.42,-7.65,18.53,8
-24.61,-8.65,18.63,8
-25.17,-8.6,18.54,8
-27.32,-8.66,18.86,8
-31.8,-9.55,18.54,8
-36.55,-8.13,21.65,8
-36.54,-6.78,21.63,8
-37.46,-8.13,21.65,8
-36.55,-5.84,21.63,8
-37.32,-7.39,21.06,8
-25.97,-6.41,20.92,8
-24.52,2.21,21.11,8
-27.23,1.96,21.08,8
-25.99,2.11,21.11,8
-19.39,-0.24,21.53,8
-23.56,-3.65,21.56,8
-31.31,-5.72,21.21,8
-30.69,-5.0,21.32,8
-28.76,-6.14,21.14,8
-21.57,-2.81,21.69,8
-32.33,-7.93,18.53,8
-31.73,0.06,21.48,8
-27.7,-2.88,21.68,8
-31.96,-0.3,21.53,8
-26.78,1.51,21.22,8
-25.49,0.1,21.47,8
-31.62,-8.21,18.53,8
-23.32,-7.1,20.99,8
-21.76,1.13,21.29,8
-21.25,-0.12,21.5,8
-30.69,-5.7,21.21,8
-22.75,-4.09,21.47,8
-22.54,-5.65,21.23,8
-31.83,-7.65,18.54,8
-29.97,-7.6,18.51,8
-38.2,-9.84,21.08,8
-32.98,2.64,21.0,8
-22.76,-9.62,18.58,8
-36.97,-7.74,21.04,8
-28.2,-3.68,21.56,8
-23.88,1.57,21.21,8
-23.65,1.99,21.12,8
-25.73,-2.86,21.67,8
-22.57,-3.85,21.51,8
-22.42,-6.97,21.0,8
-30.7,2.71,21.03,8
-31.51,-3.21,21.64,8
-35.93,-9.84,21.04,8
-36.36,-6.38,21.59,8
-35.16,-6.54,21.04,8
-32.44,2.85,20.99,8
-29.63,2.77,21.02,8
-26.34,2.41,21.07,8
-35.48,1.19,30.35,8
-23.29,-8.85,18.83,8
-26.74,-4.99,21.33,8
-22.8,-8.91,18.7,8
-30.6,2.85,21.0,8
-22.67,-3.63,21.59,8
-21.2,0.77,21.35,8
-32.2,-8.28,18.53,8
-36.41,-7.41,21.24,8
-24.16,-9.95,8.96,8
-19.58,-4.76,21.38,8
-18.24,-7.8,0.05,8
-19.68,-0.54,21.58,8
-26.15,-1.95,21.81,8
-25.0,-1.8,21.79,8
-25.09,-0.66,21.6,8
-26.49,-0.35,21.54,8
-22.57,-4.17,21.47,8
-25.53,-7.33,18.54,8
-26.21,-8.42,18.53,8
-29.07,-1.15,21.67,8
-28.46,-8.37,18.54,8
-28.79,-8.78,18.78,8
-31.65,-7.67,18.53,8
-31.95,-7.94,18.53,8
-36.77,-6.77,21.69,8
-36.77,-9.06,21.66,8
-37.43,-9.22,21.59,8
-36.37,-8.99,21.62,8
-37.26,-9.23,21.6,8
-36.1,-9.29,21.54,8
-36.61,-9.26,21.61,8
-37.89,-7.95,21.56,8
-37.89,-5.66,21.56,8
-36.1,-8.65,21.55,8
-36.1,-5.64,21.54,8
-37.11,-6.95,21.58,8
-36.61,-6.98,21.59,8
-37.61,-9.45,21.48,8
-36.93,-6.96,21.58,8
-36.93,-9.25,21.6,8
-36.39,-5.6,21.58,8
-37.46,-10.21,21.04,8
-19.21,-7.38,18.53,8
-21.76,-7.55,20.99,8
-26.44,-7.49,20.99,8
-25.86,-7.7,18.54,8
-37.7,-0.21,31.23,8
-30.94,-6.07,21.16,8
-30.41,-7.81,18.53,8
-37.81,-5.81,21.59,8
-37.82,-6.78,21.58,8
-36.19,-9.06,21.57,8
-36.69,-7.11,21.58,8
-36.19,-6.77,21.59,8
-23.13,-7.23,19.41,8
-23.97,-6.89,21.02,8
-24.51,-7.21,19.34,8
-27.58,-7.24,19.44,8
-28.95,-7.22,19.36,8
-31.22,-7.98,18.53,8
-37.01,-6.28,21.67,8
-36.73,-9.34,21.46,8
-24.39,-1.34,21.71,8
-24.41,-2.42,21.75,8
-20.48,-7.07,19.37,8
-21.37,-7.19,18.52,8
-23.57,-7.16,20.99,8
-23.57,-7.19,18.53,8
-25.95,-4.12,21.47,8
-25.88,-5.15,21.31,8
-26.22,-2.69,21.7,8
-25.32,-7.21,18.53,8
-25.46,-7.85,18.53,8
-26.89,-2.84,21.68,8
-25.65,-7.19,18.53,8
-25.89,-8.16,18.53,8
-25.93,-7.17,18.53,8
-26.11,-8.54,18.54,8
-19.33,-10.03,18.96,8
-19.31,-9.54,18.53,8
-24.01,-9.28,18.54,8
-37.13,-0.33,30.36,8
-28.2,-5.57,21.24,8
-28.71,-7.17,18.53,8
-29.06,-7.67,18.53,8
-31.1,-7.17,18.53,8
-31.82,-7.75,18.53,8
-23.51,-9.99,8.83,8
-26.64,-9.12,-0.01,8
-29.11,-10.06,19.06,8
-26.37,-9.13,-0.01,8
-37.07,-5.89,21.67,8
-37.07,-8.19,21.66,8
-37.27,-5.97,21.65,8
-36.85,-5.91,21.67,8
-36.92,-6.71,21.65,8
-37.47,-6.77,21.63,8
-36.68,-6.05,21.69,8
-36.68,-8.35,21.68,8
-36.6,-8.75,21.69,8
-37.32,-9.13,21.63,8
-37.55,-9.3,21.57,8
-36.54,-9.07,21.63,8
-36.7,-6.83,21.63,8
-37.33,-9.32,21.58,8
-37.54,-7.01,21.57,8
-37.35,-7.12,21.05,8
-36.96,-7.49,21.02,8
-37.28,-10.44,21.04,8
-31.38,-9.12,-0.04,8
-21.36,-7.03,20.99,8
-24.33,-7.22,18.53,8
-30.77,-7.23,18.54,8
-37.46,-5.83,21.66,8
-37.58,-10.38,21.05,8
-33.55,-9.94,5.33,8
-22.43,-7.37,18.46,8
-24.25,-7.28,20.84,8
-37.3,-0.07,31.22,8
-28.56,-8.47,18.7,8
-28.77,-7.43,18.59,8
-37.32,-7.33,21.05,8
-19.77,-2.1,21.8,8
-20.82,2.0,21.12,8
-26.24,-2.19,21.79,8
-36.36,-9.45,21.44,8
-22.82,1.14,21.3,8
-32.9,-7.36,18.68,8
-36.21,-5.8,21.55,8
-19.34,2.15,21.11,8
-20.1,-7.93,18.53,8
-22.41,-7.17,18.54,8
-24.55,-7.73,18.53,8
-30.12,-5.68,21.21,8
-31.93,-5.83,21.2,8
-24.29,-10.01,8.86,8
-32.92,2.85,20.99,8
-36.72,-8.93,21.67,8
-36.6,-6.45,21.68,8
-37.26,-5.77,21.7,8
-36.21,-10.44,21.02,8
-23.63,-10.01,13.0,8
-23.63,-10.09,5.74,8
-32.46,-7.34,18.59,8
-38.1,-5.93,21.55,8
-33.84,-9.59,18.69,8
-28.62,-9.42,18.61,8
-34.53,-9.44,0.38,8
-37.84,-10.33,21.03,8
-18.95,-10.24,3.53,8
-24.3,-9.96,13.44,8
-23.46,-8.49,18.74,8
-36.89,-10.33,12.83,8
-30.33,-8.43,-0.01,8
-37.51,-10.34,4.34,8
-36.92,-8.97,0.08,8
-35.58,-8.82,0.12,8
-32.13,-8.67,0.29,8
-38.82,-8.72,-0.02,8
-28.37,-9.16,18.59,8
-28.84,-9.2,18.63,8
-29.9,-8.87,18.88,8
-30.41,-7.82,18.54,8
-31.64,-7.67,18.53,8
-32.94,-7.95,18.54,8
-33.24,-7.71,18.54,8
-22.89,-9.92,8.92,8
-23.39,-9.94,8.95,8
-22.65,-8.63,0.13,8
-29.97,-10.26,9.51,8
-30.01,-10.33,9.49,8
-37.95,-9.82,21.04,8
-31.41,-8.49,0.02,8
-37.46,-8.62,0.1,8
-25.85,-7.71,18.53,8
-28.97,-8.9,18.78,8
-32.04,-8.14,18.54,8
-32.15,-7.88,18.54,8
-31.41,-8.53,0.05,8
-31.23,-8.02,18.55,8
-33.68,-8.2,18.61,8
-28.47,-9.57,17.28,8
-24.01,-9.28,18.53,8
-24.23,-9.19,18.81,8
-29.04,-9.19,18.8,8
-33.03,-7.83,18.53,8
-22.78,-10.0,8.85,8
-20.34,-8.66,0.27,8
-29.41,-10.04,9.67,8
-36.21,-10.44,21.04,8
-36.51,-10.41,21.04,8
-37.28,-10.43,21.04,8
-38.11,-10.4,21.04,8
-34.1,-8.81,0.06,8
-27.32,-8.73,18.87,8
-31.81,-9.45,18.54,8
-28.28,-8.61,0.67,8
-30.66,-9.36,18.59,8
-23.27,-10.11,5.72,8
-23.28,-9.88,16.63,8
-30.34,-9.2,18.64,8
-26.06,-9.07,0.71,8
-29.84,-10.18,9.62,8
-21.78,-9.37,17.13,8
-21.87,-9.99,13.02,8
-26.82,-10.06,11.34,8
-20.59,-8.68,0.3,8
-23.94,-8.74,18.94,8
-23.26,-10.03,13.08,8
-36.5,-10.34,21.04,8
-27.04,-10.03,16.73,8
-19.1,-10.04,18.92,8
-23.98,-10.08,5.67,8
-28.75,-8.52,0.03,8
-24.28,-9.99,8.83,8
-25.4,-8.99,1.11,8
-25.81,-9.05,0.77,8
-26.19,-9.06,0.42,8
-25.49,-9.01,0.31,8
-26.51,-8.97,1.23,8
-2.94,-7.01,6.31,12
-2.52,-1.6,5.75,12
-1.42,0.87,5.23,12
-2.21,1.62,5.23,12
-1.07,1.82,5.23,12
-3.11,-3.15,5.41,12
-0.46,-3.65,5.23,12
-4.14,-10.01,6.27,12
-3.95,-4.52,5.48,12
1.72,-10.03,5.98,12
-1.08,0.39,5.23,12
-3.41,0.92,5.23,12
-2.02,-1.6,5.75,12
-3.51,-7.3,5.33,12
-0.0,-3.63,5.22,12
-2.73,1.44,5.23,12
-1.15,2.28,5.23,12
-2.03,-2.58,5.23,12
-1.12,-8.02,5.66,12
0.06,-9.09,5.33,12
0.02,-3.0,5.23,12
0.4,-8.09,6.19,12
-3.5,-0.74,5.22,12
0.74,-1.94,5.22,12
0.97,-9.74,5.33,12
-2.49,2.7,5.25,12
1.64,-5.22,5.28,12
1.67,-1.64,5.23,12
-3.88,-0.71,5.24,12
-4.13,-3.74,5.26,12
0.68,-6.0,5.33,12
-3.85,1.26,5.22,12
-3.41,0.01,5.23,12
-0.9,-6.71,5.34,12
-1.25,-7.59,5.33,12
-1.9,-8.93,5.33,12
1.69,-4.41,5.22,12
-0.07,1.2,5.23,12
-0.39,-4.4,5.23,12
-1.59,-3.69,5.23,12
-0.66,-6.0,5.33,12
-4.0,-2.92,5.22,12
-3.63,-4.16,5.28,12
-3.63,-5.99,5.33,12
1.79,-6.86,5.34,12
-2.53,0.52,5.23,12
0.65,-5.22,5.23,12
-1.33,-4.11,5.23,12
1.68,-0.56,5.24,12
-0.33,-5.28,5.23,12
-3.2,-6.02,5.34,12
-4.03,-7.98,5.33,12
1.83,-9.28,5.33,12
-0.96,-4.31,5.23,12
-3.74,-8.62,5.33,12
-4.01,1.37,5.23,12
-1.58,-6.09,5.34,12
-3.14,1.73,5.23,12
-3.87,0.64,5.25,12
-4.18,-9.13,5.34,12
-0.37,-6.78,5.34,12
-4.21,-8.14,5.33,12
-2.6,-3.92,5.93,12
-1.92,-7.12,6.22,12
0.15,-4.16,5.23,12
1.8,-8.58,5.33,12
-4.15,-4.61,5.23,12
-4.35,-6.77,5.33,12
-4.29,-9.15,5.33,12
-4.61,-5.6,5.54,12
-2.15,-4.98,5.23,12
-2.33,-9.04,5.33,12
-4.38,-8.28,5.33,12
1.08,-7.33,5.33,12
1.65,-8.22,5.33,12
-3.31,-6.73,6.16,12
1.08,-7.77,5.33,12
-4.38,-7.19,5.33,12
1.12,-5.22,5.24,12
-4.13,-9.78,5.39,12
1.94,-6.18,5.74,12
-3.99,-8.8,5.33,12
-1.03,-4.09,5.23,12
1.42,-8.94,5.33,12
1.45,-8.67,5.33,12
-4.33,-6.74,5.33,12
1.53,-6.87,5.38,12
1.42,-7.89,5.34,12
-0.47,-4.65,5.22,12
-3.82,-9.39,5.33,12
-0.34,-0.63,5.75,12
-4.38,-1.2,3.89,12
-1.97,2.41,5.21,12
-0.59,0.65,5.22,12
-1.38,-0.8,5.52,12
-3.53,2.28,5.23,12
-3.74,-8.62,5.33,12
-3.19,2.0,5.23,12
-3.42,-1.12,5.23,12
-1.65,-4.87,5.22,12
-3.95,-4.87,5.47,12
0.35,-2.08,5.23,12
0.34,0.75,5.23,12
1.28,-1.06,5.23,12
-0.03,-9.92,5.33,12
-4.61,-6.73,1.47,12
-0.35,2.72,5.23,12
-3.14,1.55,5.18,12
-1.27,-9.93,5.32,12
1.69,0.81,5.23,12
-2.84,-5.3,5.23,12
-1.58,-5.9,5.37,12
-3.57,-1.8,5.26,12
-1.04,-8.93,5.33,12
1.09,2.72,5.23,12
-2.64,-5.99,5.42,12
-2.85,-0.99,5.27,12
1.68,2.12,5.26,12
-3.84,-5.91,5.33,12
0.55,1.22,5.24,12
0.13,2.42,5.22,12
1.33,-3.36,5.24,12
1.67,-1.64,5.24,12
0.69,-5.99,5.33,12
1.76,-5.93,5.43,12
1.64,-2.34,5.22,12
-4.12,-3.02,5.25,12
-4.11,-2.38,5.22,12
1.27,-7.32,5.33,12
-0.83,-1.6,5.75,12
-2.02,-1.6,5.74,12
1.64,-2.35,5.23,12
-0.93,-6.71,5.33,12
1.65,-4.41,5.23,12
1.37,0.01,5.27,12
1.06,-1.68,5.39,12
-0.03,-1.39,5.29,12
1.04,1.34,5.26,12
-2.6,-2.3,5.28,12
-3.26,-0.74,5.22,12
1.34,-2.81,5.27,12
1.98,-6.14,5.78,12
1.61,-2.34,5.24,12
1.63,-3.04,5.23,12
1.74,-5.91,5.57,12
-4.13,-2.39,5.23,12
1.12,-4.21,5.22,12
1.3,-4.87,5.37,12
0.99,-2.99,5.25,12
-0.09,-7.06,5.37,12
-2.41,-5.29,5.26,12
-0.38,1.08,5.22,12
-2.14,-5.28,5.26,12
1.84,-3.73,0.81,12
1.31,0.55,5.26,12
-3.88,-8.03,5.33,12
-1.79,-0.87,5.71,12
-1.69,1.0,5.23,12
-3.84,-3.75,5.41,12
-1.86,-1.82,5.74,12
-3.72,-8.35,5.33,12
-0.25,1.44,5.23,12
-1.0,-1.81,5.69,12
1.48,-2.57,5.23,12
-2.73,-0.75,5.68,12
-2.7,-1.81,5.7,12
-1.73,-8.78,5.33,12
-2.72,-1.4,5.68,12
-0.6,-0.57,5.72,12
1.63,1.18,5.23,12
-3.39,-2.43,5.23,12
1.03,-8.06,5.34,12
1.33,-3.09,5.23,12
-1.33,1.91,5.23,12
0.73,0.57,5.3,12
-3.16,1.27,5.23,12
1.31,1.71,5.23,12
1.24,-10.73,2.73,12
-2.13,-9.3,5.33,12
-0.66,-7.01,6.21,12
-2.7,0.48,5.23,12
-2.95,-4.84,5.23,12
-3.51,-0.42,5.23,12
-2.61,0.78,5.23,12
0.21,-3.87,5.23,12
1.17,-4.92,5.23,12
-3.75,2.48,5.23,12
-3.72,-8.33,5.32,12
-3.78,-7.76,5.33,12
-2.91,0.64,5.23,12
-1.28,2.74,5.22,12
-2.5,2.72,5.21,12
-3.93,2.69,5.22,12
-0.36,2.73,5.23,12
-1.28,0.95,5.22,12
-2.83,-9.95,5.33,12
-1.57,-5.87,5.33,12
-3.8,-5.88,5.33,12
0.44,-5.86,5.33,12
1.41,1.61,5.35,12
-3.42,2.76,5.23,12
0.11,2.76,5.23,12
-3.57,-1.39,5.22,12
1.27,2.28,5.28,12
-2.89,2.63,5.21,12
0.47,-3.85,5.4,12
-0.97,1.13,5.2,12
-3.97,-7.61,5.35,12
-3.66,-4.26,5.23,12
1.26,-5.87,5.33,12
-2.46,1.82,5.23,12
-3.65,-4.74,5.24,12
1.8,-8.91,5.34,12
-3.97,-8.29,5.34,12
-3.15,-5.28,5.23,12
0.05,1.44,5.24,12
0.09,-7.35,5.38,12
-2.3,1.07,5.23,12
1.87,-10.01,6.34,12
-1.4,1.67,5.21,12
1.86,-5.53,5.3,12
1.79,-8.58,5.34,12
-1.15,-5.89,5.33,12
-4.18,-7.22,5.32,12
-3.88,-10.72,3.14,12
-3.78,-7.76,5.33,12
0.96,-1.3,5.23,12
-3.74,-2.32,5.22,12
1.85,-5.54,5.29,12
1.56,-6.71,5.33,12
-4.1,-9.44,5.33,12
1.7,0.28,5.22,12
-0.77,-8.32,5.38,12
0.22,-6.68,5.37,12
-3.97,1.82,5.25,12
-4.3,2.85,5.29,12
0.36,-1.65,5.23,12
-2.96,-7.3,5.31,12
-2.75,2.26,5.23,12
-3.78,-7.76,5.33,12
1.55,-6.7,5.33,12
-3.22,-0.01,5.23,12
-2.76,0.86,5.23,12
-2.87,-0.07,5.65,12
-0.8,-8.23,5.37,12
0.74,-3.08,5.23,12
0.06,-0.73,5.31,12
-3.9,-8.17,5.33,12
-0.87,1.7,5.23,12
-4.38,-6.16,5.34,12
0.63,-8.49,5.33,12
-3.09,2.72,5.21,12
-2.92,2.17,5.23,12
0.55,-1.98,5.23,12
-3.04,-0.27,5.35,12
-1.97,-5.29,5.27,12
-2.92,2.4,5.22,12
-3.71,1.45,5.22,12
-3.87,-3.2,5.24,12
1.28,2.28,5.24,12
-3.71,-8.7,5.37,12
1.46,-7.58,5.32,12
-2.83,2.52,5.23,12
-2.49,-1.47,5.68,12
-3.85,-5.28,5.33,12
-3.71,-3.94,5.3,12
1.07,-7.75,5.33,12
-2.46,-3.88,5.24,12
1.56,1.77,5.23,12
0.08,2.67,5.22,12
-2.51,-0.63,5.74,12
-4.0,1.85,5.26,12
-4.29,-5.96,5.34,12
0.05,-3.93,5.27,12
-2.6,-5.09,5.27,12
-0.18,-1.82,5.72,12
-1.04,-0.45,5.73,12
-1.44,2.28,5.23,12
-1.88,-1.31,5.71,12
-2.95,-4.84,5.23,12
-3.37,-4.14,5.22,12
-3.71,-7.58,5.33,12
-4.3,-10.2,3.93,12
1.41,-9.25,5.33,12
-2.11,0.71,5.26,12
-2.12,-9.16,5.33,12
-1.91,-9.93,4.46,12
-0.48,0.29,5.22,12
-0.94,-1.88,5.46,12
-1.2,-1.81,5.32,12
1.3,-9.66,5.34,12
1.01,-9.6,5.33,12
-0.89,-5.27,5.23,12
-0.98,-9.66,5.33,12
-2.29,0.29,5.23,12
-3.41,-1.75,5.23,12
-3.46,-2.13,5.22,12
-2.51,-9.6,5.34,12
-3.16,-5.26,5.22,12
-3.6,-9.65,5.33,12
0.94,0.64,5.38,12
-0.33,-0.64,5.73,12
-0.32,-1.56,5.69,12
-0.81,-0.63,5.73,12
-0.43,-5.2,5.22,12
-2.49,-1.58,5.72,12
-2.54,-1.97,5.25,12
-1.74,-9.55,5.33,12
-2.57,-5.98,5.43,12
-2.92,-9.6,5.34,12
1.37,0.02,5.27,12
-0.72,-7.05,6.09,12
-1.37,2.92,5.34,12
-2.49,-10.16,4.05,12
-1.84,-5.88,5.34,12
1.93,-10.21,3.06,12
0.43,-10.17,4.14,12
0.42,-3.84,5.22,12
-0.62,-2.0,5.3,12
1.83,-6.19,5.31,12
-1.23,-1.52,5.35,12
-0.1,2.74,5.22,12
-4.26,-10.05,6.18,12
-4.06,-9.98,4.48,12
-0.64,-9.91,4.36,12
0.15,0.06,5.24,12
0.34,-3.67,5.23,12
-0.63,-4.37,5.23,12
-2.75,-7.09,6.1,12
-0.81,-2.69,5.24,12
-4.52,-10.17,3.12,12
0.99,1.73,5.4,12
-3.82,-9.39,5.32,12
1.04,-3.92,5.3,12
0.72,-2.92,5.2,12
-1.43,-0.6,5.23,12
-2.68,-1.35,5.73,12
-0.56,-8.0,5.33,12
-2.48,-3.83,5.5,12
1.04,-8.09,5.41,12
-3.01,-4.59,5.74,12
-2.81,-3.75,6.13,12
0.68,-4.19,5.17,12
0.83,-7.99,5.39,12
-2.84,-1.05,5.76,12
-3.07,0.47,5.26,12
-1.48,0.29,5.43,12
1.52,1.02,5.21,12
1.52,-5.1,5.27,12
1.31,-4.17,5.23,12
0.17,-4.94,5.22,12
0.51,-9.05,5.34,12
0.05,-9.09,5.33,12
-2.92,2.4,5.23,12
-2.67,2.58,5.22,12
-3.75,2.48,5.23,12
-1.38,-9.03,5.33,12
-2.33,-9.04,5.33,12
-2.53,-7.74,5.33,12
-3.46,-9.14,5.34,12
1.28,2.28,5.26,12
-1.15,2.29,5.23,12
-2.21,-1.88,5.63,12
-1.97,2.42,5.22,12
-3.18,1.99,5.23,12
-2.77,-7.29,5.57,12
-1.93,-10.09,4.85,12
-1.37,-0.83,5.56,12
1.29,-0.31,5.23,12
1.1,-5.18,5.23,12
0.81,-1.51,5.24,12
0.64,-5.18,5.23,12
-0.44,0.45,5.24,12
-0.59,-1.88,5.24,12
-0.55,-9.34,5.33,12
-0.6,-8.17,5.34,12
-1.22,-9.31,5.34,12
-2.64,-1.88,5.52,12
-2.83,2.52,5.23,12
-1.84,-8.44,5.33,12
-2.2,-8.9,5.34,12
-2.49,-9.36,5.34,12
-2.74,-9.37,5.34,12
-2.84,-8.64,5.33,12
-3.07,-9.36,5.34,12
0.32,-10.16,4.55,12
1.03,-9.28,5.33,12
-0.25,-9.13,5.33,12
-0.07,-6.58,6.04,12
0.42,-10.17,4.21,12
0.31,-11.05,1.72,12
-1.93,-11.06,1.64,12
-2.94,-11.04,1.61,12
-0.36,1.16,5.42,12
-0.59,0.64,5.23,12
-1.09,-10.23,4.42,12
-2.65,-10.22,5.67,12
-0.58,-10.08,4.85,12
-3.78,-10.76,3.13,12
0.97,0.61,5.37,12
-0.89,-9.33,5.32,12
-3.64,-9.32,5.34,12
0.54,-2.2,5.29,12
-2.98,-10.16,4.19,12
-3.75,-8.68,5.33,12
0.15,2.55,5.22,12
-3.6,-5.2,5.23,12
-1.28,-10.09,5.74,12
0.29,-3.2,5.28,12
-3.31,0.94,5.32,12
5.23,-8.04,5.35,13
6.72,-10.72,4.5,13
10.1,-6.42,5.14,13
20.21,-8.52,15.34,13
21.69,-8.53,15.33,13
23.03,-3.12,15.17,13
17.89,-6.08,15.15,13
20.29,-7.63,14.85,13
13.79,-3.14,4.73,13
18.8,-8.31,15.43,13
10.46,-8.15,5.19,13
16.54,-9.73,15.18,13
18.47,-7.35,15.47,13
19.93,-5.74,15.48,13
16.74,-5.38,15.53,13
14.75,-6.36,4.34,13
22.48,-6.15,14.85,13
23.46,-5.03,14.85,13
16.29,-2.47,14.37,13
22.58,-2.53,14.31,13
14.88,-2.61,14.32,13
21.07,-3.44,14.86,13
17.8,-2.59,14.45,13
10.88,-7.58,4.76,13
14.5,-7.96,14.21,13
19.4,-6.19,15.48,13
16.37,-5.96,15.54,13
15.73,-3.32,15.13,13
17.45,-7.37,15.46,13
20.41,-5.16,15.47,13
19.39,-5.17,15.46,13
21.58,-2.23,14.22,13
17.74,-9.21,15.22,13
20.44,-5.71,15.47,13
16.55,-2.94,15.17,13
15.04,-8.61,14.41,13
14.05,-3.61,4.97,13
18.0,-7.34,15.47,13
15.04,-9.17,14.22,13
18.03,-7.85,15.48,13
20.15,-4.79,15.38,13
15.8,-6.48,15.16,13
20.28,-8.26,14.85,13
34.09,-2.62,19.1,13
33.16,1.01,15.35,13
26.51,-0.53,15.16,13
31.0,-1.42,14.86,13
33.5,-1.36,14.95,13
33.07,1.99,14.85,13
33.17,-0.29,15.34,13
17.18,-8.36,15.42,13
23.19,-8.52,15.34,13
34.75,-1.26,14.85,13
25.87,-3.59,15.15,13
20.88,-9.68,15.22,13
28.64,-7.71,15.51,13
23.83,-2.62,15.1,13
18.86,-8.52,15.39,13
26.82,-7.55,15.17,13
30.12,-2.59,18.66,13
23.16,-9.64,15.18,13
20.57,-9.49,14.84,13
24.37,-2.84,15.19,13
32.69,-2.61,19.09,13
14.75,-7.5,14.21,13
10.47,-6.12,5.19,13
23.72,-3.54,15.15,13
25.84,3.1,13.36,13
9.97,-8.59,5.12,13
30.24,2.35,14.84,13
27.0,0.88,14.87,13
8.06,-3.46,4.34,13
35.94,-5.8,23.19,13
26.12,-4.59,14.85,13
24.01,-4.65,15.03,13
24.82,-2.97,15.18,13
27.57,-2.36,14.85,13
14.84,-3.23,14.46,13
26.78,-4.66,14.85,13
17.43,-7.14,15.4,13
25.64,3.04,15.17,13
23.95,-9.7,15.26,13
5.65,-3.52,4.34,13
29.63,3.02,15.16,13
16.31,-3.46,14.84,13
27.23,-4.71,14.85,13
23.07,-3.61,14.97,13
8.72,-3.53,4.36,13
35.22,-4.57,23.24,13
26.74,0.15,15.17,13
32.0,-2.62,21.07,13
18.55,-9.68,15.2,13
19.26,-6.29,15.39,13
21.38,-9.74,15.12,13
15.5,-9.31,15.15,13
23.59,-3.93,15.19,13
34.87,-1.64,14.85,13
32.21,-2.6,22.43,13
20.72,-3.12,15.18,13
17.74,-8.1,15.46,13
17.72,-9.73,15.11,13
32.01,-2.53,22.13,13
25.14,-3.06,14.82,13
34.58,-2.63,14.87,13
17.35,-8.11,15.43,13
26.82,-8.15,15.59,13
28.2,-8.15,15.59,13
33.69,-2.57,21.98,13
28.18,-4.81,23.19,13
24.92,-7.68,14.85,13
17.44,-8.59,15.43,13
31.73,-2.55,20.23,13
29.25,-2.41,18.53,13
34.99,1.89,14.83,13
16.73,-2.61,14.45,13
26.75,3.32,5.86,13
27.22,3.2,5.2,13
23.36,-5.33,15.13,13
30.85,1.87,14.85,13
30.45,-2.71,19.17,13
25.8,-4.62,14.84,13
10.05,-5.88,5.15,13
33.54,1.01,14.99,13
35.47,-7.34,14.22,13
17.74,-7.65,15.47,13
14.87,-7.4,14.22,13
17.11,-7.84,15.37,13
20.12,-5.45,15.46,13
17.1,-7.23,15.37,13
26.38,-7.89,15.54,13
10.22,-8.56,5.15,13
27.75,-7.89,15.54,13
19.44,-4.89,15.37,13
20.45,-6.19,15.47,13
23.9,-5.1,14.85,13
35.56,-2.3,4.32,13
30.4,1.11,14.93,13
35.54,-3.41,14.22,13
23.39,-5.11,15.04,13
35.61,-2.94,14.22,13
23.86,-8.87,14.87,13
35.08,2.72,15.14,13
23.89,-9.32,14.88,13
35.07,0.14,14.85,13
35.35,3.0,15.16,13
26.94,1.89,14.85,13
35.07,-2.89,15.2,13
32.52,3.25,1.09,13
14.67,-2.34,14.41,13
26.91,-2.65,14.84,13
14.86,-4.23,14.43,13
27.85,-2.37,14.85,13
14.47,-2.18,14.27,13
35.91,-0.36,-0.01,13
35.93,-2.04,0.02,13
17.28,-0.9,4.34,13
16.67,-2.43,4.34,13
23.66,-5.58,14.99,13
18.59,-7.21,15.41,13
20.56,-5.25,15.43,13
20.56,-5.73,15.45,13
17.54,-7.23,15.42,13
17.56,-8.03,15.48,13
27.21,-2.62,14.86,13
17.19,-7.42,15.41,13
17.13,-7.84,15.38,13
36.09,-1.94,4.32,13
36.09,-2.14,4.33,13
35.02,1.31,14.85,13
36.12,-5.09,4.32,13
36.18,-7.3,14.22,13
35.53,-2.64,14.22,13
35.01,-0.77,14.85,13
35.02,-1.49,14.85,13
36.23,-7.63,14.22,13
35.54,-8.93,14.21,13
17.5,0.4,4.34,13
14.82,-2.44,4.34,13
24.49,-0.36,14.84,13
24.49,-0.65,14.84,13
23.79,-6.34,14.85,13
23.79,-5.45,14.87,13
20.85,-5.71,15.22,13
23.8,-9.62,14.87,13
18.87,-8.12,15.37,13
36.13,-8.22,14.21,13
35.79,0.83,4.35,13
35.67,0.62,-0.0,13
35.67,1.31,4.32,13
35.63,-10.52,4.32,13
36.37,-4.96,14.35,13
35.31,-1.55,0.02,13
35.5,0.93,4.67,13
35.54,-4.54,4.8,13
35.96,1.01,-0.01,13
35.86,-0.93,0.0,13
35.59,-1.83,-0.01,13
35.5,-2.25,0.52,13
35.81,-3.27,4.32,13
35.78,1.16,4.32,13
35.78,0.9,4.33,13
35.55,-3.63,4.33,13
36.43,-6.08,14.26,13
30.15,3.26,0.01,13
35.9,0.59,-0.02,13
35.67,-3.1,4.32,13
35.66,-5.67,4.32,13
8.75,1.31,4.35,13
6.17,1.11,4.81,13
8.59,0.2,4.34,13
8.31,2.23,4.34,13
8.41,-0.7,4.34,13
6.35,-2.74,4.34,13
6.2,-6.33,5.11,13
5.53,1.23,4.34,13
5.59,-1.54,4.34,13
5.52,-0.01,4.35,13
5.52,1.99,4.34,13
9.22,1.11,4.8,13
14.48,1.1,4.78,13
9.16,-1.66,4.34,13
7.31,-3.18,4.34,13
11.53,1.34,4.34,13
8.76,1.32,4.35,13
19.5,-10.45,14.21,13
15.84,-9.75,15.2,13
19.92,-4.83,15.36,13
10.89,-6.36,5.17,13
17.09,-7.85,15.4,13
10.89,-8.39,5.16,13
4.78,-6.67,1.61,13
11.64,-1.86,4.34,13
14.32,-8.35,13.16,13
8.54,-0.73,4.34,13
9.05,-2.16,4.34,13
20.15,-3.43,14.85,13
5.25,0.16,4.34,13
16.09,-2.71,4.34,13
18.94,2.37,4.34,13
12.47,0.61,4.34,13
5.22,-0.99,4.34,13
10.7,2.36,4.34,13
13.23,2.32,4.34,13
5.22,1.22,4.35,13
17.94,-3.43,14.81,13
20.07,-9.4,14.85,13
16.28,-2.47,14.38,13
12.33,2.43,4.34,13
8.24,2.41,4.34,13
18.84,-2.5,14.34,13
19.99,-9.94,15.17,13
15.78,-3.33,15.18,13
9.22,2.33,4.34,13
23.07,-10.69,14.25,13
15.88,-10.7,14.21,13
14.68,2.36,4.35,13
5.22,-2.13,4.34,13
15.25,2.37,4.34,13
17.96,-2.95,15.18,13
18.29,-10.67,14.21,13
26.56,-0.56,15.1,13
24.21,-2.48,14.54,13
28.59,-8.6,15.51,13
23.14,-9.7,15.18,13
27.8,-7.75,15.56,13
30.23,2.44,14.85,13
10.88,-0.99,4.35,13
14.34,-3.43,5.13,13
29.18,-7.57,22.31,13
16.9,2.4,4.34,13
24.04,-3.85,15.04,13
27.86,-3.98,14.85,13
9.79,2.38,4.34,13
5.85,2.31,4.33,13
5.22,1.09,4.37,13
18.94,-10.71,14.21,13
25.71,-9.14,14.85,13
6.54,2.32,4.35,13
32.95,-3.09,14.84,13
11.28,2.34,4.34,13
25.88,-10.72,14.21,13
17.89,-10.72,14.22,13
4.91,1.85,4.34,13
30.08,-6.85,14.85,13
25.44,2.69,14.86,13
15.27,-6.53,14.21,13
23.43,-3.34,15.08,13
11.7,2.3,4.35,13
26.46,-8.44,15.54,13
10.34,1.74,4.34,13
6.51,0.94,4.34,13
13.05,1.95,4.34,13
16.61,-2.67,4.35,13
9.36,3.01,4.34,13
26.81,-3.59,15.02,13
14.62,-4.32,14.35,13
24.13,-6.15,14.85,13
32.45,-6.44,15.26,13
26.73,0.93,15.12,13
24.11,-4.18,15.05,13
20.46,-5.04,15.44,13
17.86,-8.03,15.48,13
10.23,-6.55,5.15,13
18.47,-10.55,14.22,13
18.89,-10.52,14.22,13
6.98,-6.09,4.65,13
27.26,-8.4,15.59,13
5.67,-2.36,4.35,13
35.55,-8.93,14.21,13
35.35,-7.25,14.29,13
35.08,0.33,14.85,13
26.87,1.81,15.14,13
25.29,2.09,14.85,13
24.44,0.13,15.02,13
12.85,0.48,4.34,13
20.76,-5.04,15.35,13
20.56,-5.44,15.44,13
20.29,-6.6,15.36,13
19.07,-5.1,15.38,13
35.71,-3.91,4.33,13
35.02,-1.97,14.86,13
36.11,-9.57,4.33,13
15.4,2.12,4.34,13
12.79,-2.49,4.34,13
12.38,0.19,4.34,13
35.21,1.52,-0.01,13
35.2,-0.36,-0.01,13
35.47,-7.15,0.44,13
35.8,-3.58,4.32,13
7.09,2.91,4.34,13
5.53,0.36,4.34,13
7.4,-10.7,4.5,13
6.34,2.95,4.33,13
10.98,2.86,4.34,13
11.57,2.07,4.34,13
16.46,-9.74,15.18,13
14.71,-8.93,14.21,13
18.68,-2.74,14.24,13
22.84,-9.74,15.17,13
17.31,-2.73,14.2,13
15.03,-2.74,14.42,13
16.21,-2.44,14.54,13
14.5,-6.32,14.21,13
15.24,-4.06,4.34,13
21.19,-3.24,14.85,13
15.16,-3.89,4.35,13
18.9,3.0,4.35,13
11.06,2.11,4.34,13
20.16,-3.22,14.86,13
17.93,-3.36,14.84,13
14.65,2.94,4.35,13
18.94,-10.7,14.22,13
15.26,-4.46,14.22,13
20.56,-9.62,14.85,13
20.11,-10.7,14.21,13
18.87,-3.33,14.88,13
14.8,-10.64,14.21,13
10.61,-10.73,4.49,13
9.7,3.0,4.36,13
14.72,2.5,4.34,13
21.26,2.9,4.35,13
17.93,2.96,4.34,13
19.55,-0.85,4.34,13
14.64,-6.03,14.22,13
15.76,-9.57,15.17,13
20.92,2.96,4.35,13
23.45,-0.93,4.35,13
27.84,-8.44,15.54,13
26.15,-10.05,14.22,13
18.25,-2.09,14.29,13
14.81,-8.7,14.48,13
27.2,-8.59,15.53,13
25.9,-3.32,15.18,13
26.82,-7.63,15.54,13
26.47,-3.61,15.18,13
35.13,-4.78,23.22,13
29.05,2.77,14.84,13
31.05,2.76,14.85,13
25.25,-2.98,14.85,13
5.67,-2.35,4.33,13
24.98,-8.38,14.85,13
17.72,-0.98,4.34,13
18.51,-0.98,4.35,13
24.17,-10.72,14.23,13
26.65,-3.95,14.85,13
17.89,-10.72,14.22,13
24.9,-10.72,14.22,13
25.88,-10.71,14.26,13
5.73,2.95,4.33,13
25.48,-4.37,14.85,13
18.33,2.95,4.35,13
18.29,-10.66,14.21,13
10.6,3.0,4.35,13
18.88,2.62,4.34,13
5.34,2.96,4.34,13
14.19,-3.13,5.33,13
18.68,-10.72,14.21,13
24.1,-9.58,14.99,13
25.52,-10.08,14.24,13
28.5,2.85,15.16,13
27.34,-8.06,15.5,13
24.05,-4.18,14.99,13
26.55,-7.69,15.55,13
18.09,-2.73,14.21,13
26.62,-8.63,15.53,13
28.0,-8.64,15.54,13
18.51,-2.76,14.56,13
23.53,-5.26,15.19,13
24.64,-3.06,15.21,13
24.02,-3.19,15.69,13
20.56,-5.59,15.43,13
18.04,-8.52,15.44,13
15.04,-9.18,14.21,13
24.11,-8.39,14.84,13
24.1,-9.13,15.13,13
27.44,-8.55,15.55,13
17.5,-0.97,4.33,13
11.06,-8.33,5.15,13
9.98,-6.55,5.14,13
22.92,-10.66,14.21,13
18.79,-8.02,15.4,13
17.55,-8.51,15.43,13
9.76,0.97,4.34,13
26.42,-7.74,15.54,13
36.25,-9.01,14.21,13
35.58,-9.51,14.22,13
23.97,-5.59,14.85,13
36.51,-5.58,3.71,13
35.31,-10.69,14.23,13
11.63,2.27,4.35,13
16.96,-8.41,15.38,13
36.19,-9.05,14.22,13
35.21,2.23,0.0,13
35.65,2.68,4.32,13
35.3,2.7,-0.03,13
35.78,2.6,4.33,13
35.53,1.21,4.32,13
8.21,-2.11,4.34,13
7.35,3.03,4.34,13
5.38,-8.25,5.34,13
15.59,-5.94,15.43,13
22.08,-5.71,15.17,13
10.38,-0.13,4.34,13
10.75,0.9,4.34,13
21.56,-10.88,3.65,13
18.86,-9.75,15.18,13
13.5,1.93,4.35,13
16.91,-10.15,14.21,13
17.35,-10.71,13.76,13
14.87,-7.42,14.22,13
15.1,-9.29,14.22,13
20.23,-9.75,15.2,13
10.47,-5.6,5.16,13
10.75,-5.63,5.13,13
18.37,-8.55,15.43,13
10.46,-7.66,5.16,13
10.03,-7.92,5.18,13
10.03,-5.89,5.18,13
17.62,-8.72,15.38,13
10.48,-8.64,5.19,13
10.48,-6.61,5.18,13
10.19,-7.72,5.18,13
10.25,-6.59,5.14,13
17.11,-8.52,15.37,13
10.25,-8.61,5.14,13
17.73,-8.51,15.43,13
14.53,-10.48,1.34,13
15.74,-3.19,15.07,13
10.37,-3.3,4.35,13
12.79,-10.51,1.47,13
15.83,3.04,4.29,13
11.11,3.03,4.36,13
25.72,-10.27,4.33,13
23.71,2.5,4.38,13
10.82,-2.71,4.34,13
20.1,-9.3,14.87,13
24.25,-10.27,4.31,13
28.45,-10.25,4.32,13
13.05,3.02,4.34,13
24.03,3.17,5.93,13
9.7,3.02,4.34,13
20.71,-9.5,14.85,13
21.94,-10.76,13.04,13
19.86,2.53,4.34,13
20.96,2.52,4.34,13
19.52,-10.65,14.21,13
20.03,-8.63,14.84,13
18.0,-7.36,15.48,13
18.92,-10.68,14.22,13
15.87,-10.68,14.21,13
16.28,-10.58,14.22,13
14.61,-5.66,14.21,13
18.3,-10.64,14.21,13
9.57,0.95,4.35,13
19.18,-6.4,15.38,13
19.47,2.52,4.34,13
15.46,3.0,4.33,13
8.17,-10.9,4.24,13
30.31,-10.61,0.8,13
28.9,-10.52,0.51,13
21.23,2.52,4.35,13
17.26,-8.65,15.37,13
18.89,3.01,4.34,13
11.28,-2.73,4.35,13
20.73,-10.19,14.2,13
25.85,-3.64,15.15,13
21.9,-7.84,15.0,13
25.37,-3.69,15.14,13
5.45,-1.99,4.34,13
26.27,-8.73,15.18,13
28.19,-8.15,15.6,13
26.82,-8.14,15.58,13
23.79,-10.57,13.59,13
26.25,-3.65,15.11,13
10.89,-8.37,5.16,13
10.82,-6.52,5.07,13
28.66,-10.57,1.73,13
19.47,-6.32,15.42,13
19.27,-5.59,15.43,13
17.88,-8.51,15.42,13
19.27,-5.73,15.42,13
26.19,-8.27,15.45,13
27.55,-8.3,15.49,13
9.97,-8.56,5.12,13
34.77,-10.38,1.02,13
14.79,-2.63,14.43,13
33.43,-10.83,13.23,13
18.87,2.82,4.36,13
32.94,-10.79,13.13,13
33.86,-10.26,4.32,13
32.45,-10.28,4.33,13
32.4,-10.44,14.22,13
26.77,-9.03,14.85,13
14.5,-5.93,14.26,13
14.8,-10.63,14.22,13
35.16,-10.67,14.2,13
5.37,-8.42,5.1,13
9.81,-10.51,1.43,13
4.91,1.82,4.37,13
15.71,-10.29,14.23,13
25.48,-4.37,14.85,13
24.03,-8.96,15.04,13
14.45,-8.54,14.41,13
29.3,-10.83,12.23,13
23.37,-5.84,14.85,13
10.65,-5.81,5.08,13
27.39,-2.72,14.85,13
36.17,-10.61,14.29,13
18.7,-10.68,14.21,13
26.34,-8.57,15.53,13
27.71,-8.57,15.53,13
15.65,-5.88,15.21,13
15.67,-8.7,15.37,13
13.65,-10.63,0.14,13
11.95,-10.62,0.11,13
17.18,-8.36,15.45,13
31.09,1.64,15.58,13
29.95,1.62,15.63,13
33.23,-10.63,14.22,13
28.28,-10.23,14.21,13
27.53,-7.71,15.25,13
25.67,-9.01,14.84,13
20.11,-10.66,14.22,13
15.45,3.0,4.34,13
14.83,2.58,4.32,13
18.52,-9.5,14.85,13
17.59,-9.5,14.84,13
33.95,-10.56,14.2,13
29.82,-10.9,12.21,13
29.55,-10.53,14.22,13
22.89,-10.63,14.21,13
10.53,1.17,4.35,13
17.11,2.81,4.37,13
20.83,-9.75,15.21,13
35.56,-9.94,14.24,13
20.36,-6.54,14.89,13
27.69,-8.6,15.56,13
14.74,-7.12,14.27,13
35.93,-4.46,14.21,13
35.84,-4.92,14.21,13
36.11,-8.54,14.21,13
35.98,-9.2,14.21,13
35.86,-8.09,14.21,13
34.98,-10.54,14.23,13
34.34,-10.38,14.21,13
33.93,-10.4,14.22,13
26.15,-10.08,14.21,13
22.69,-7.25,14.85,13
20.24,-6.85,14.84,13
22.68,-6.43,14.84,13
23.06,-7.69,14.85,13
21.0,-8.51,14.84,13
19.56,-10.49,14.21,13
18.61,-8.32,15.44,13
17.13,-9.75,15.2,13
23.4,-7.09,14.85,13
36.24,-5.04,14.23,13
36.24,-6.84,14.22,13
35.9,-9.77,14.22,13
34.12,-10.38,14.2,13
27.61,-10.4,14.21,13
25.73,-10.24,14.21,13
14.01,3.02,4.34,13
22.47,-6.18,14.85,13
22.93,-6.28,14.84,13
23.14,-8.8,14.87,13
22.73,-8.74,14.82,13
21.72,-8.68,15.2,13
20.87,-8.44,14.85,13
19.68,-10.43,14.21,13
11.87,-10.9,0.04,13
23.24,-5.93,14.98,13
29.89,-10.92,0.09,13
32.88,-10.92,0.07,13
31.01,-10.87,0.11,13
33.75,-10.81,0.09,13
8.42,-1.98,4.35,13
8.42,-4.1,4.35,13
8.14,-4.21,4.35,13
7.28,-2.03,4.35,13
6.68,-2.94,4.34,13
6.56,-1.16,4.35,13
6.46,-3.13,4.38,13
8.6,-4.46,4.34,13
8.19,-4.39,4.34,13
7.1,-2.4,4.35,13
6.36,-1.94,4.34,13
5.97,-1.41,4.34,13
8.3,2.93,4.35,13
7.08,2.9,4.35,13
6.6,-6.58,5.02,13
19.88,-6.31,15.44,13
19.74,-5.27,15.49,13
19.65,-6.69,15.3,13
19.27,-5.26,15.43,13
19.5,-10.82,14.32,13
18.33,-7.22,15.46,13
18.21,-7.54,15.49,13
16.45,-9.74,15.19,13
10.91,-5.89,5.2,13
10.89,-6.34,5.15,13
11.04,-1.18,4.34,13
10.98,-3.49,4.35,13
10.15,-5.78,5.27,13
10.28,1.1,4.34,13
9.61,-2.24,4.34,13
9.46,0.74,4.34,13
11.14,-6.55,4.56,13
10.15,-7.82,5.29,13
9.15,0.54,4.34,13
6.93,0.91,4.35,13
20.14,-5.44,15.46,13
19.67,-5.46,15.48,13
28.78,-10.6,1.84,13
21.45,-10.86,3.66,13
10.46,-6.13,5.2,13
10.28,-6.6,5.12,13
10.28,-8.63,5.13,13
9.16,-10.55,2.54,13
19.6,-6.57,15.35,13
15.41,-5.33,14.69,13
12.17,1.92,4.35,13
20.63,-10.09,14.11,13
9.14,-6.9,4.61,13
22.16,-5.24,14.85,13
21.66,-5.85,15.1,13
20.83,-10.6,14.21,13
20.29,-9.89,15.18,13
19.67,-6.61,15.38,13
20.12,-10.63,14.22,13
19.51,-10.63,14.21,13
18.33,-10.61,14.21,13
17.29,-8.66,15.02,13
17.28,-10.63,14.21,13
14.54,-4.67,14.21,13
10.01,3.01,4.35,13
12.38,-7.65,4.39,13
10.29,-6.74,4.84,13
9.35,0.83,4.35,13
22.11,-10.54,14.22,13
19.72,-10.5,14.21,13
16.28,-10.56,14.22,13
11.31,2.92,4.34,13
10.68,-6.37,5.22,13
10.86,-6.69,4.77,13
10.87,-8.71,4.79,13
