15.39026356 52.36377716 23.82209969 0.436814 0.469534 0.767288
9.60059929 73.66109467 19.07058144 0.569241 0.562485 0.599646
0.42049286 53.56269836 22.56907082 0.570238 0.556701 0.604080
2.68529677 69.27479553 22.57665062 0.515784 0.529225 0.673712
18.86428070 76.22077942 17.87716484 0.577291 0.567133 0.587448
19.42217827 67.12461853 18.17751694 0.584042 0.563728 0.584042
-2.73458409 54.22286606 22.95630074 0.504850 0.528331 0.682637
11.26148033 67.69501495 17.55143738 0.551482 0.527871 0.645925
21.75741959 69.80544281 17.99584007 0.613327 0.525468 0.589673
3.38766837 59.39437485 22.32712555 0.603997 0.549857 0.576927
12.06343174 57.93751526 20.96615028 0.486764 0.530255 0.694183
14.10757160 86.72553253 -0.12104511 0.532429 0.525710 0.663437
11.05128956 75.54984283 20.47671700 0.561767 0.544897 0.622499
1.48033559 66.29037476 22.57754135 0.466757 0.509945 0.722560
5.68265867 53.12413788 22.57426643 0.575499 0.541745 0.612628
11.64592457 56.30204010 20.97139359 0.513511 0.513511 0.687469
3.70385671 80.18067169 22.58189011 0.518624 0.518624 0.679749
-0.19528927 65.86325836 22.57917595 0.514618 0.528028 0.675541
8.50636005 79.73237610 17.55188751 0.565508 0.552004 0.612775
-44.16316223 50.20560455 5.27885962 0.497552 0.497552 0.710551
9.08663654 69.14096069 17.55684662 0.568969 0.552085 0.609489
19.44884109 79.75466919 17.55482292 0.572306 0.548671 0.609447
3.18655014 79.23267365 22.57729912 0.510737 0.510737 0.691589
-39.66094589 78.41741180 34.12162781 0.496052 0.509413 0.703158
5.17283392 54.39056778 22.56871223 0.579178 0.548784 0.602818
4.16261053 53.11483765 22.57338524 0.566432 0.546142 0.617158
-40.85349655 72.42962646 34.07771301 0.449792 0.462876 0.763828
-25.94307518 43.45386505 0.04777341 0.551701 0.726270 0.410071
12.68699074 75.55868530 20.25534821 0.563205 0.553057 0.613944
-4.05768204 53.54091263 22.31259727 0.587327 0.556861 0.587327
14.56933022 91.96790314 -0.13487501 0.547698 0.524105 0.652182
12.01888943 75.56693268 20.47800446 0.566679 0.553146 0.610660
12.13963985 51.95320511 20.95356560 0.458542 0.474978 0.751089
-29.78886604 75.07611084 22.66181183 0.497788 0.531309 0.685506
3.16361141 80.01412964 22.60403252 0.533109 0.519655 0.667648
18.96422195 68.58640289 17.56184769 0.565386 0.548509 0.616017
2.55834413 58.77351761 22.57044792 0.572600 0.559087 0.599625
-20.59428215 72.03015900 22.66637039 0.496645 0.530089 0.687277
1.30863822 65.31974030 22.57809830 0.439576 0.505430 0.742505
-3.89827037 72.25695038 22.57811356 0.503813 0.487185 0.713319
12.60025120 54.65696335 21.00513649 0.553057 0.563205 0.613944
12.45921421 86.72681427 -0.12925094 0.536965 0.523499 0.661527
-4.01128578 54.82179642 22.31237221 0.572417 0.552155 0.606188
-42.57966614 52.47178650 0.40463248 0.687469 0.513511 0.513511
12.62596035 57.76376343 21.11608505 0.556344 0.556344 0.617221
-8.24193573 56.71605682 -0.12582099 0.541018 0.530906 0.652256
8.37146282 75.48213959 17.55404663 0.563205 0.553057 0.613944
5.31878042 57.91817856 22.56980133 0.583674 0.546455 0.600593
0.64395988 53.20192719 22.57243156 0.570238 0.556701 0.604080
21.03939629 72.29281616 17.55209541 0.559592 0.549448 0.620454
10.16086102 79.48441315 17.54411316 0.558673 0.555297 0.616059
2.84300804 55.54378891 22.56649971 0.572515 0.555627 0.602914
21.32261467 73.67128754 17.55154037 0.569072 0.555563 0.606223
13.83905029 56.12304306 23.82639313 0.510385 0.480460 0.713208
-0.03304623 65.34117889 22.57265091 0.485073 0.521746 0.701773
15.86131954 95.09370422 -0.11913363 0.539354 0.522552 0.660331
15.00453186 67.08583832 18.17635536 0.584042 0.563728 0.584042
11.52104092 67.41835785 17.55699348 0.554804 0.524450 0.645867
3.10825801 59.40028000 22.33267212 0.592464 0.538450 0.599215
-0.61474895 52.97549438 22.56472969 0.566562 0.549650 0.613916
-20.28536987 70.79896545 22.66108894 0.478214 0.514872 0.711490
8.85805798 68.89358521 17.55558968 0.558272 0.544779 0.625737
17.86777687 70.63690186 17.56212997 0.559592 0.549448 0.620454
11.65989208 71.76287842 20.47610092 0.558552 0.551802 0.619301
14.14455986 79.53823090 17.72884560 0.563315 0.556548 0.610681
18.04983330 71.57114410 17.55046272 0.575630 0.545245 0.609391
8.51975346 96.49243927 -0.11398140 0.540791 0.527314 0.655351
2.24827504 57.60393906 22.82506561 0.516029 0.532838 0.670670
3.11682606 72.29428864 25.16769218 0.514086 0.520785 0.681541
2.63023305 58.29686737 22.57168388 0.580530 0.556835 0.594070
5.50888681 53.43168640 22.56786537 0.562948 0.546042 0.620426
10.54867649 72.19403839 20.47803116 0.555057 0.551683 0.622541
-28.13457108 44.15810776 0.00477527 0.534289 0.537660 0.652271
5.84485531 58.77389908 22.56682777 0.577026 0.553336 0.600716
1.60335362 79.69097900 22.58395195 0.541628 0.541628 0.642867
3.70917559 72.25623322 25.14084625 0.507076 0.523811 0.684468
20.68875122 76.05630493 17.55136871 0.559835 0.556453 0.613958
-40.13375473 74.35844421 34.07618332 0.425150 0.464244 0.776998
-9.42519569 68.73028564 -0.15117429 0.539099 0.518945 0.663377
28.57750511 86.78286743 -0.13356015 0.539099 0.518945 0.663377
2.62203002 72.25348663 25.14695358 0.515261 0.521975 0.679742
-49.00719833 43.22804260 0.13789678 0.548546 0.538419 0.639689
17.90769768 77.84544373 19.07076073 0.562421 0.565798 0.602955
4.04458046 58.77999115 22.57257843 0.580530 0.556835 0.594070
-47.46734238 75.83169556 34.07535172 0.551482 0.527871 0.645925
0.93796057 58.77223587 22.57045555 0.579436 0.559164 0.592950
5.38514423 58.76674652 22.56874657 0.580530 0.556835 0.594070
-0.38378572 73.07315063 22.57870293 0.537868 0.537868 0.649151
4.69615412 55.92350388 22.57426643 0.570140 0.553222 0.607360
-4.15078688 100.25553131 -0.13446262 0.540258 0.536892 0.647973
21.59675789 68.67501068 17.55042267 0.565508 0.552004 0.612775
-45.34402084 71.35205078 34.07822800 0.536965 0.523499 0.661527
-19.17839622 71.57186127 22.80987930 0.470881 0.527453 0.707153
8.77400017 91.09848022 -0.12694992 0.602749 0.545344 0.582489
4.97597075 53.77763748 22.57000542 0.576399 0.535832 0.616967
2.32958126 56.73730469 22.89036560 0.522528 0.522528 0.673742
-29.94492722 75.58410645 22.67222404 0.496901 0.533708 0.684284
9.27611446 68.48596954 17.53661537 0.563083 0.549555 0.617193
0.06293708 71.94909668 22.57685852 0.536479 0.533115 0.654201
-51.24266052 74.95772552 36.77717972 0.483827 0.507104 0.713271
2.18373203 73.42420959 25.15701103 0.529076 0.529076 0.663444
0.63521999 67.32560730 22.57960320 0.449279 0.482193 0.752089
1.15588403 65.68769073 22.57693672 0.457905 0.494273 0.738930
-0.15908237 79.10779572 22.58650970 0.548146 0.531280 0.645970
16.27344894 70.89334869 17.89359093 0.616770 0.528901 0.582974
17.15654945 93.46520233 -0.12573482 0.534077 0.534077 0.655381
6.61949444 57.98647690 22.57106400 0.572417 0.552155 0.606188
1.30598485 65.08982849 22.57679939 0.438508 0.494348 0.750554
4.31987143 59.64323425 22.32834625 0.575853 0.552211 0.602873
5.67293453 54.23904419 22.56955147 0.570029 0.549731 0.610625
-22.20318031 73.67240906 22.83740997 0.500040 0.526798 0.687346
-1.83958507 59.34978485 19.86449242 0.570454 0.567068 0.594152
29.51667404 96.91194916 -0.13631038 0.663946 0.495859 0.559732
6.32591105 57.65282822 22.57175446 0.583561 0.542965 0.603859
20.81006622 69.97411346 17.81233406 0.559938 0.559938 0.610687
20.34273148 72.34786224 17.55098724 0.565386 0.548509 0.616017
12.04991531 67.71260071 17.54929543 0.562639 0.538984 0.626844
-4.29154539 75.72941589 22.58912849 0.504550 0.494559 0.707702
-1.72131813 74.41161346 22.57878113 0.511334 0.518040 0.685691
4.69289351 53.23276901 22.57756042 0.561614 0.541375 0.625702
-2.53985572 59.58599854 22.32031631 0.573484 0.549800 0.607318
0.17904632 76.76589966 22.79359627 0.519885 0.536709 0.664577
-3.74606514 74.78487396 22.58499718 0.470026 0.470026 0.747095
28.59788322 98.67443848 -0.08978157 0.665955 0.498208 0.555242
11.78175545 67.67721558 17.53671074 0.566827 0.496184 0.657654
-0.63990837 58.77801132 22.56725883 0.600593 0.546455 0.583674
9.63968563 74.82712555 19.05545235 0.565715 0.558960 0.606243
0.58388609 51.87475967 22.86556435 0.539095 0.566135 0.623593
16.16282082 98.72607422 -0.13081826 0.659839 0.502015 0.559100
-0.39601573 86.23107910 -0.10289998 0.551250 0.544507 0.632167
6.21226263 56.81020737 22.56847954 0.570238 0.556701 0.604080
6.07754564 88.56603241 9.79124451 0.569072 0.555563 0.606223
-4.21734428 86.01902771 -0.12373984 0.540810 0.547549 0.638526
-50.37393570 70.89085388 36.78030396 0.578486 0.531262 0.618963
-43.46667862 77.55789185 34.56485748 0.560028 0.563411 0.607402
-47.38965225 70.91614532 34.07979202 0.498040 0.534932 0.682499
-4.23117638 67.62818146 22.57088852 0.423356 0.449309 0.786696
-0.70491672 53.76979065 22.88375664 0.486534 0.486534 0.725650
14.28656578 80.91902161 18.10188293 0.600785 0.570323 0.560169
10.09241199 75.51410675 20.46976852 0.556090 0.549329 0.623700
-33.35771179 43.55278397 0.13510254 0.499661 0.563591 0.657803
20.20069122 72.98934174 17.55249023 0.566782 0.556631 0.607388
0.09150816 66.96143341 22.56500435 0.512565 0.502548 0.696220
-24.16645432 41.39501953 -0.12831835 0.669054 0.498017 0.551676
13.26676559 75.59269714 20.47141838 0.563205 0.553057 0.613944
0.96240181 58.36848450 22.57300949 0.570140 0.553222 0.607360
5.40691376 57.57381058 22.87166214 0.508078 0.538261 0.672407
-2.34798598 59.40170288 22.33188438 0.575853 0.552211 0.602873
-21.80009270 77.03306580 -0.01464707 0.602200 0.527979 0.598826
20.62100029 69.96415710 17.55258751 0.566562 0.549650 0.613916
5.57608366 59.68258286 22.36087036 0.572515 0.555627 0.602914
10.09430695 75.64846802 20.47218895 0.563083 0.549555 0.617193
-0.41627303 52.47919083 22.56977844 0.568969 0.552085 0.609489
5.12439442 54.55858612 22.56274414 0.572934 0.535752 0.620255
20.05514336 90.45265961 -0.12822588 0.551482 0.527871 0.645925
-0.26291516 52.84796524 22.56775475 0.570140 0.553222 0.607360
-0.80585420 67.76695251 22.90212059 0.541585 0.568580 0.619195
-4.00996447 81.21869659 3.78935432 0.533320 0.540050 0.651088
1.22686398 77.67827606 22.57878304 0.533320 0.540050 0.651088
8.77285576 92.08414459 -0.14060973 0.544365 0.527511 0.652226
-33.68557358 33.98632431 -0.13457999 0.547455 0.520504 0.655262
12.65336990 67.71467590 17.57313347 0.566432 0.546142 0.617158
-0.63092929 52.70388794 22.56974983 0.575853 0.552211 0.602873
-14.62524223 49.61254120 -0.18308920 0.551407 0.548034 0.628975
0.39493814 67.17551422 22.57764053 0.451856 0.508131 0.733232
21.59417915 79.38420868 17.55244446 0.568969 0.552085 0.609489
21.08997345 69.81961823 17.98710823 0.566562 0.549650 0.613916
18.64208031 72.31973267 17.88802528 0.559592 0.549448 0.620454
-1.81982148 64.68882751 23.34709549 0.533320 0.540050 0.651088
21.46003532 75.46942139 17.55310440 0.566679 0.553146 0.610660
12.62774944 79.44201660 17.59844398 0.556224 0.552842 0.620468
5.93496990 53.68861771 22.57038116 0.575499 0.541745 0.612628
-2.99870586 59.37984467 22.28600121 0.609239 0.538358 0.582236
-1.26217580 54.58897018 22.86906433 0.527511 0.544365 0.652226
-19.63517761 70.46791840 22.69385529 0.488462 0.518469 0.701851
20.98638725 71.38554382 17.66282082 0.549329 0.556090 0.623700
5.78326225 59.39464188 22.32230568 0.589296 0.545394 0.596050
17.72110939 58.58010101 24.13191223 0.567016 0.567016 0.597483
15.14589310 54.95690155 24.27841568 0.569358 0.569358 0.593011
45.56803131 46.12601089 -0.13137856 0.569358 0.569358 0.593011
-8.84528637 71.93403625 -0.11361147 0.559720 0.552956 0.617214
17.71840668 56.79807663 24.13643265 0.569306 0.565928 0.596336
17.75425911 100.20240784 -0.12244258 0.627862 0.506666 0.590830
16.52174187 85.59419250 0.05251928 0.575945 0.555677 0.599591
3.04020000 75.54098511 22.58208847 0.555057 0.551683 0.622541
33.49283218 69.40021515 13.79773903 0.569306 0.565928 0.596336
15.97472191 53.63262177 24.08835983 0.553222 0.570140 0.607360
34.34793854 82.03189850 13.12312126 0.548296 0.558419 0.622527
21.07984352 71.11953735 17.91198921 0.562421 0.565798 0.602955
1.71702731 52.80068207 22.56803131 0.566782 0.556631 0.607388
2.72510171 67.82460785 22.57930183 0.516485 0.540038 0.664532
27.05731583 58.29288101 19.43603134 0.573944 0.573944 0.584103
23.33123016 72.86907959 17.55075455 0.586857 0.539502 0.603769
3.74570727 76.70835114 22.58476639 0.558552 0.551802 0.619301
4.78992939 77.57605743 23.40321732 0.538064 0.541437 0.646014
22.40428734 67.45194244 17.55120087 0.551897 0.535019 0.639660
15.46011925 91.41046906 -0.10791125 0.666593 0.565848 0.485253
5.91424608 55.96760559 22.56768417 0.570323 0.560169 0.600785
12.36551189 53.70906830 20.98555565 0.555399 0.562151 0.612795
-3.79234624 65.22911072 22.57765579 0.442960 0.502241 0.742658
1.96839976 67.71379089 22.56439781 0.501027 0.541244 0.675298
2.49205709 55.62523270 22.63425255 0.570323 0.560169 0.600785
32.16807938 59.41149139 18.30196953 0.533514 0.543612 0.647958
8.33054256 70.87837982 17.56378365 0.559592 0.549448 0.620454
2.59980178 68.47856903 22.57981110 0.529530 0.536254 0.657290
18.30077171 55.42620468 23.84389877 0.493290 0.520044 0.697294
32.03270721 63.14934158 19.05756950 0.563566 0.566951 0.600799
1.74215388 78.84810638 22.57757568 0.544507 0.551250 0.632167
1.79509485 59.17765808 22.68309212 0.597476 0.570395 0.563625
14.66212177 74.87243652 17.55019760 0.563411 0.560028 0.607402
-14.80673027 59.07934189 0.00310692 0.556090 0.549329 0.623700
17.23993492 52.42421722 24.65046883 0.545930 0.559451 0.623678
11.76274014 54.04383087 20.97406769 0.492981 0.529746 0.690173
8.58794308 69.64533997 17.55398369 0.559720 0.552956 0.617214
24.13612366 59.13743591 19.08400917 0.569306 0.565928 0.596336
26.91737747 59.24741364 18.29984474 0.541628 0.541628 0.642867
-0.44733915 51.59884262 23.06514549 0.610625 0.570029 0.549731
8.04090881 73.86815643 17.55570602 0.555399 0.562151 0.612795
-14.80805302 75.36898804 -0.00103121 0.556090 0.549329 0.623700
33.31303406 71.41793060 13.66941738 0.567016 0.567016 0.597483
27.19055176 62.91966629 19.04643822 0.569306 0.565928 0.596336
14.21605873 70.88716888 17.55351448 0.575945 0.555677 0.599591
0.71397567 67.10892487 22.57514572 0.483827 0.507104 0.713271
30.83397675 63.18836594 19.03539658 0.565870 0.565870 0.599653
28.91145897 62.56275558 18.99739265 0.567016 0.567016 0.597483
20.76381302 70.67655945 17.55546188 0.570323 0.560169 0.600785
24.09625816 58.11307526 19.82910347 0.622995 0.585852 0.518319
1.23445833 68.47323608 22.57783508 0.520103 0.540301 0.661490
2.32293344 73.35705566 25.15731430 0.541807 0.545183 0.639704
0.03528215 69.62958527 22.57815933 0.543815 0.537080 0.644833
45.02423859 46.28250885 -0.11929969 0.555184 0.555184 0.619308
29.23653984 60.33275986 18.62194443 0.562421 0.565798 0.602955
33.80179214 68.17636871 13.12205791 0.577185 0.560259 0.594111
-9.26713943 57.80867386 -0.12811092 0.569306 0.565928 0.596336
34.64703751 68.00492859 13.18222237 0.570395 0.563625 0.597476
24.65510559 62.45756912 18.30612183 0.541807 0.545183 0.639704
14.41145515 60.07685471 17.74267578 0.542866 0.576689 0.610513
1.63180172 79.25179291 22.58085632 0.548034 0.551407 0.628975
0.95392257 76.61315155 22.58722496 0.569905 0.546230 0.613874
35.70327759 70.72678375 13.12178230 0.569072 0.555563 0.606223
5.87704277 57.42259979 22.61280632 0.570323 0.560169 0.600785
18.63383484 78.29261017 19.15703392 0.565973 0.572731 0.593004
23.15864372 71.69281769 17.54998970 0.565508 0.552004 0.612775
33.43336105 58.61468887 18.30353546 0.536892 0.540258 0.647973
2.70629430 79.87333679 22.58519173 0.540454 0.540454 0.644841
11.77472496 55.34321594 20.97051048 0.501698 0.535257 0.679558
-27.79752350 85.67110443 5.01647806 0.559835 0.556453 0.613958
30.69827652 81.84020996 6.81922817 0.572809 0.572809 0.586327
25.32000351 62.92287445 18.30228615 0.522552 0.539354 0.660331
27.99106979 62.42596817 18.29900360 0.547362 0.537257 0.641677
0.44284067 86.09240723 0.02126790 0.556224 0.552842 0.620468
2.28967905 78.19061279 22.58285522 0.537257 0.547362 0.641677
23.82935905 59.24395752 18.28542709 0.515261 0.521975 0.679742
11.35093689 57.55563736 20.97024345 0.498040 0.534932 0.682499
10.36472321 72.99113464 20.47673988 0.559835 0.556453 0.613958
14.21659851 69.78030396 17.55313301 0.570238 0.556701 0.604080
8.05013561 69.69547272 17.55246353 0.565386 0.548509 0.616017
30.72073746 58.56454086 18.29506493 0.534077 0.534077 0.655381
32.65760803 58.61360168 18.29988480 0.545357 0.545357 0.636531
13.15281963 75.93811035 20.47138214 0.563411 0.560028 0.607402
-29.00807381 70.26353455 22.85158539 0.515331 0.538831 0.666405
41.38438416 85.44882202 6.36768627 0.541375 0.561614 0.625702
31.84105110 68.06729126 13.12287235 0.565870 0.565870 0.599653
16.53905869 73.04566956 17.75185585 0.566873 0.560105 0.604101
31.51043892 59.54483414 18.32771111 0.536892 0.540258 0.647973
11.87488079 50.17917252 20.96903801 0.499409 0.506090 0.703181
32.35985184 70.98331451 13.82837582 0.567016 0.567016 0.597483
2.02955580 79.68123627 22.59739113 0.538419 0.548546 0.639689
32.36268997 69.41527557 13.85598373 0.567016 0.567016 0.597483
8.27568436 68.27167511 17.55346870 0.561448 0.537843 0.628889
35.61663055 68.14213562 13.13437748 0.579363 0.555716 0.596254
3.31902218 66.94656372 22.58060455 0.451856 0.508131 0.733232
34.60680771 67.46154022 13.12554932 0.573589 0.553285 0.604045
1.07212055 75.07045746 22.60683632 0.562948 0.546042 0.620426
43.80084610 79.82192230 -0.10932426 0.569358 0.569358 0.593011
-20.95752335 70.63334656 23.20775032 0.562613 0.582888 0.586267
24.47221184 63.11626053 18.30088425 0.529740 0.539830 0.654186
5.13873434 58.43001938 22.56558228 0.573681 0.556759 0.600758
23.96115685 62.66091537 18.29973221 0.530256 0.530256 0.661557
16.73974228 86.08577728 0.00308021 0.559720 0.552956 0.617214
11.03553295 58.32085037 20.97229767 0.502234 0.508908 0.699123
21.37199020 79.15014648 17.54345131 0.569072 0.555563 0.606223
3.25029254 69.66887665 22.57794189 0.548727 0.541974 0.636524
32.47760773 60.83650589 19.14309502 0.569306 0.565928 0.596336
12.21858406 73.79853058 20.47473717 0.563083 0.549555 0.617193
44.80529022 48.89111710 -0.12284960 0.569306 0.565928 0.596336
14.73818779 74.60019684 17.55487251 0.566782 0.556631 0.607388
4.03953695 76.39973450 22.57470322 0.547885 0.547885 0.632175
42.43241501 49.57125473 -0.12496984 0.563411 0.560028 0.607402
7.29045916 86.08319855 -0.02365647 0.562036 0.551909 0.616045
19.43273544 75.27980804 19.05072021 0.563625 0.570395 0.597476
24.65334702 86.08034515 -0.01121018 0.562151 0.555399 0.612795
-14.80059528 62.34826279 0.00187604 0.552426 0.545668 0.630137
-14.82702065 53.31933212 -0.02224472 0.552426 0.545668 0.630137
32.01113510 62.96590805 19.17447472 0.565928 0.569306 0.596336
33.61940002 62.59869385 19.16849518 0.565928 0.569306 0.596336
16.64427757 71.82699585 17.55322456 0.565618 0.555487 0.609516
25.05415916 62.93429565 18.29971313 0.520309 0.543883 0.658384
14.58286953 70.15868378 17.55440140 0.565798 0.562421 0.602955
-28.54921532 43.58644104 0.09265151 0.587327 0.556861 0.587327
34.96487045 69.80480194 13.50425911 0.572809 0.572809 0.586327
11.25347328 57.19329453 20.95995903 0.526406 0.526406 0.667678
29.59668732 62.89615250 19.08904266 0.565928 0.569306 0.596336
1.14531589 75.44803619 22.57224846 0.562800 0.542518 0.623643
29.33329010 62.90950394 19.08484459 0.572776 0.569397 0.589673
24.72781754 63.13941956 18.29880142 0.523036 0.529764 0.667670
-1.65043092 66.84133148 23.07560539 0.612628 0.575499 0.541745
31.76507950 62.61052322 19.18103218 0.567068 0.570454 0.594152
13.47300720 86.09220886 0.00305329 0.558673 0.555297 0.616059
8.52548885 71.47859955 17.54851341 0.562151 0.555399 0.612795
13.28391171 58.48859024 23.82002258 0.498040 0.534932 0.682499
30.23401260 60.89513779 19.03242874 0.567016 0.567016 0.597483
35.74363327 81.39636230 13.12347507 0.555297 0.558673 0.616059
14.56188965 70.51108551 17.54777336 0.570323 0.560169 0.600785
45.04521179 49.77528381 -0.11525435 0.565870 0.565870 0.599653
1.82635987 67.55831909 22.57810020 0.474508 0.514467 0.714259
33.30858994 69.85281372 13.67872047 0.562254 0.558877 0.609530
21.99312019 76.57212067 17.55248451 0.563205 0.553057 0.613944
17.72256851 70.80199432 17.55210686 0.570029 0.549731 0.610625
24.26944351 62.84546280 18.29685402 0.529530 0.536254 0.657290
32.53688431 61.12586594 19.17783356 0.563566 0.566951 0.600799
23.92352104 59.44522858 18.29802513 0.515784 0.529225 0.673712
30.62822914 71.61614990 12.94814968 0.562344 0.562344 0.606250
30.58218956 60.30375671 18.75440598 0.562485 0.569241 0.599646
3.26426029 64.42230225 23.40213013 0.534289 0.537660 0.652271
5.55125856 88.44398499 9.80280018 0.558552 0.551802 0.619301
32.07174301 62.39918518 19.28206825 0.565928 0.569306 0.596336
17.39515114 52.59547424 23.82727051 0.506758 0.506758 0.697419
0.86719888 51.83739090 22.58185768 0.569306 0.565928 0.596336
2.76950026 76.24230194 22.57761002 0.552716 0.552716 0.623707
35.65095139 97.12959290 -0.14197555 0.563411 0.560028 0.607402
-0.67614990 51.33643723 23.02265930 0.572809 0.572809 0.586327
-63.09323883 -7.66122055 -0.14241941 0.565870 0.565870 0.599653
32.34006882 62.93727493 19.20847130 0.567016 0.567016 0.597483
1.18901038 66.11582184 22.57816696 0.496901 0.533708 0.684284
26.31144905 58.29769135 26.26199150 0.565928 0.569306 0.596336
35.29481506 67.52799225 13.12837791 0.575945 0.555677 0.599591
20.53063583 71.99911499 17.55142021 0.566782 0.556631 0.607388
29.07792473 61.13302994 19.05923462 0.567068 0.570454 0.594152
0.71845186 66.42510223 22.57357597 0.507599 0.531052 0.678474
8.47983265 67.74130249 17.55394745 0.562639 0.538984 0.626844
29.37214661 61.14486313 19.08032990 0.572672 0.562536 0.596322
24.96804619 61.90401459 18.29544258 0.540638 0.544006 0.641692
35.84230042 69.75672913 13.32372379 0.568852 0.548596 0.612740
17.60187340 77.87441254 19.04306412 0.563625 0.570395 0.597476
0.55806333 78.99345398 23.06864166 0.604045 0.573589 0.553285
1.38528454 55.47800827 22.92028809 0.570323 0.560169 0.600785
35.69385529 69.69179535 13.13524246 0.577112 0.556803 0.597421
11.02878380 73.17442322 20.47376251 0.565386 0.548509 0.616017
-4.29162025 86.11624146 0.04628660 0.547362 0.537257 0.641677
25.33589745 62.33854675 18.29699898 0.533514 0.543612 0.647958
9.68424797 67.80606079 17.55812454 0.565386 0.548509 0.616017
-1.75312173 69.77764130 22.94261742 0.616017 0.565386 0.548509
30.69706345 62.30973816 19.17320442 0.567016 0.567016 0.597483
11.18074036 67.54511261 17.55232430 0.566432 0.546142 0.617158
8.41852379 71.65980530 17.55051994 0.570140 0.553222 0.607360
33.83928680 67.55809784 13.14442825 0.568969 0.552085 0.609489
27.68091774 60.55234909 18.63638687 0.555627 0.572515 0.602914
6.07663107 58.27230072 22.56738472 0.570140 0.553222 0.607360
6.08849287 53.59700012 22.56428909 0.562036 0.551909 0.616045
2.07507849 77.63984680 22.57843971 0.523914 0.544130 0.655314
2.84326649 75.88793945 22.57653046 0.565386 0.548509 0.616017
28.19009018 59.68259048 18.30013084 0.540810 0.547549 0.638526
32.21536255 62.30028915 19.29449081 0.569163 0.559030 0.602942
11.70264816 67.55006409 17.54893875 0.547549 0.540810 0.638526
11.93765736 60.11214828 18.15113068 0.414808 0.447089 0.792493
8.15154076 74.59680176 17.62172127 0.548546 0.538419 0.639689
47.77043152 64.15123749 -0.12580362 0.541375 0.561614 0.625702
35.95704651 67.27358246 13.22089386 0.566873 0.560105 0.604101
18.66481972 80.31577301 14.35575104 0.575630 0.545245 0.609391
-28.72482300 48.72484207 0.26518241 0.670291 0.498938 0.549336
29.69534302 62.47731400 19.17856979 0.613453 0.528956 0.586414
-0.28205413 57.36895752 23.16290474 0.519356 0.546248 0.657178
30.64012146 63.82253265 12.76572895 0.530256 0.530256 0.661557
-42.93790054 59.60104752 0.47621256 0.655262 0.520504 0.547455
2.09669256 68.91271973 22.57250214 0.505577 0.505577 0.699131
7.86132431 76.34233093 17.55249405 0.563205 0.553057 0.613944
-4.43465328 74.54401398 22.56349754 0.484482 0.467946 0.739124
23.98716736 58.11743927 24.57546425 0.701761 0.565722 0.433001
14.33777237 70.42086792 17.56253242 0.576927 0.549857 0.603997
-4.39466619 66.04753113 22.58491898 0.409343 0.497409 0.764868
33.72335434 86.15867615 -0.13193405 0.556344 0.556344 0.617221
-4.33407450 71.39469147 22.58049393 0.489445 0.489445 0.721725
3.71127176 59.39622498 22.32875252 0.599406 0.545375 0.585899
15.80939770 80.33187103 6.00656366 0.551482 0.527871 0.645925
4.44554901 68.38186646 22.57501411 0.533514 0.543612 0.647958
-30.18176460 49.68844604 0.33703721 0.669166 0.501456 0.548415
7.86414528 73.15646362 17.55511665 0.561767 0.544897 0.622499
13.93316174 79.80067444 -0.01312505 0.541628 0.541628 0.642867
-4.33286476 72.47307587 22.62148476 0.523811 0.507076 0.684468
21.74805832 79.70207214 17.55673599 0.592680 0.545400 0.592680
7.90135574 78.21645355 17.54488754 0.554918 0.548171 0.625759
34.03162766 91.54897308 -0.12956680 0.556224 0.552842 0.620468
-20.27379990 98.28229523 -0.13644800 0.544130 0.523914 0.655314
-14.16071796 58.93290710 -0.10807971 0.530015 0.526650 0.664623
2.56165051 73.70129395 25.14931107 0.544798 0.534678 0.645999
31.51554298 63.41020203 18.56175041 0.515104 0.535239 0.669468
29.23784828 61.00966644 19.04754257 0.556344 0.556344 0.617221
33.91090393 97.59403992 -0.12337858 0.533616 0.526883 0.661550
4.34829617 76.31001282 22.58068085 0.534077 0.534077 0.655381
12.82336330 67.41457367 17.54858589 0.583779 0.489567 0.647709
33.49191284 67.37776184 13.12258911 0.582090 0.534848 0.612460
-3.64530563 52.66450500 22.56855011 0.575853 0.552211 0.602873
12.12058353 52.56632233 20.96483612 0.470026 0.470026 0.747095
32.39859009 58.38418198 18.29555702 0.526406 0.526406 0.667678
28.67188644 58.35337448 18.31095314 0.510737 0.510737 0.691589
33.13470459 62.39121246 19.31675339 0.587179 0.549952 0.593948
-4.35497665 66.88758087 22.60384560 0.321513 0.456392 0.829660
13.11816406 56.39078140 23.81955910 0.504017 0.517412 0.691558
2.56548333 78.79366302 22.57632637 0.518040 0.511334 0.685691
22.14032936 76.39137268 17.55242348 0.561908 0.548409 0.619280
33.58490372 63.68404007 13.57064056 0.532898 0.532898 0.657297
2.80549622 78.05419159 22.57596207 0.515331 0.538831 0.666405
18.75399590 80.33670807 6.02257395 0.550281 0.526722 0.647885
19.60557938 76.09934235 19.06695175 0.562344 0.562344 0.606250
-4.03529501 54.79761887 22.30911064 0.570238 0.556701 0.604080
-3.44736695 54.26707840 22.57466698 0.589390 0.548859 0.592768
12.30363178 73.24194336 20.47875404 0.559720 0.552956 0.617214
18.71958733 93.40457153 -0.11835110 0.540050 0.533320 0.651088
35.96223450 69.87316132 13.11841297 0.565508 0.552004 0.612775
29.42169189 58.35372925 18.30878830 0.530256 0.530256 0.661557
29.01214600 63.03188705 18.82623100 0.555399 0.562151 0.612795
33.36622620 61.35493851 19.24779510 0.609031 0.531426 0.588786
30.78244209 61.39060974 19.13214111 0.612105 0.524421 0.591870
9.49221325 72.98274231 19.02919197 0.563566 0.566951 0.600799
26.73001480 58.19812012 18.29924774 0.525936 0.536018 0.660361
24.04806519 81.04203033 -0.01234721 0.673127 0.491836 0.552266
33.28310776 58.20077133 18.29932785 0.517441 0.517441 0.681549
28.35874939 62.52647400 18.30086327 0.528307 0.518244 0.672543
18.77922058 96.71923828 -0.12579975 0.608076 0.510380 0.608076
16.48044586 79.01142883 17.64560509 0.565508 0.552004 0.612775
2.23729014 55.96759033 22.93376160 0.517441 0.517441 0.681549
16.37870407 58.39127350 23.82016182 0.467082 0.513624 0.719739
11.99903011 90.06755829 -0.12126300 0.536254 0.529530 0.657290
-3.56987071 57.32104874 22.57015038 0.583862 0.553399 0.594016
21.71656799 90.06735992 -0.11785316 0.539598 0.526150 0.657267
13.13926125 57.67461777 23.81850052 0.501698 0.535257 0.679558
15.98408222 88.07741547 -0.13467914 0.543612 0.533514 0.647958
1.38816202 78.93753052 22.57379341 0.547362 0.537257 0.641677
36.00715637 80.95436859 13.11869526 0.537440 0.530701 0.655374
6.90616941 54.82167816 22.57406998 0.575853 0.552211 0.602873
28.76621056 63.28184128 18.34942627 0.514358 0.524410 0.678550
-3.10861111 77.23267365 22.64052010 0.524410 0.514358 0.678550
1.38939631 77.24921417 22.58118057 0.540454 0.540454 0.644841
3.43944621 65.49864960 22.57509804 0.428362 0.494012 0.756609
-18.90759850 76.12387085 23.00454903 0.504203 0.534355 0.678413
31.65845871 87.91607666 -0.12581554 0.541628 0.541628 0.642867
32.78207779 61.36282349 19.28944588 0.587085 0.546480 0.597236
18.71026421 71.47046661 17.70426369 0.563083 0.549555 0.617193
32.80598831 96.20694733 -0.12926671 0.536479 0.533115 0.654201
28.01085281 58.25548172 18.31012917 0.525225 0.525225 0.669536
15.66379547 75.44868469 17.55052185 0.562036 0.551909 0.616045
27.05899048 98.20381927 -0.11061847 0.667406 0.506018 0.546365
32.75011444 58.10829544 19.43669128 0.461685 0.461685 0.757426
-1.96855044 77.38007355 22.57709503 0.537208 0.527104 0.658459
28.95242119 58.84754562 18.29447365 0.530256 0.530256 0.661557
27.83340073 60.54968643 18.35379410 0.536691 0.536691 0.651095
30.76998520 62.65651321 19.12341881 0.585785 0.541893 0.602667
27.68821907 63.24883652 18.32567215 0.511616 0.521681 0.682714
35.07270432 74.17898560 14.48097420 0.570140 0.553222 0.607360
-9.93576336 72.00789642 -0.12951680 0.537868 0.537868 0.649151
28.76854897 59.61415863 18.30522919 0.540454 0.540454 0.644841
22.29423141 79.68328094 17.54807281 0.596929 0.536052 0.596929
13.28745461 79.91493225 0.02863550 0.547549 0.540810 0.638526
1.10450172 65.93722534 22.58168793 0.429084 0.501420 0.751308
6.90094519 57.45661163 22.57225418 0.580251 0.546417 0.603935
34.20252991 67.93549347 13.12191010 0.577026 0.553336 0.600716
-18.87598419 72.04138184 22.99555969 0.504203 0.534355 0.678413
28.93337822 59.76855469 18.29768562 0.540454 0.540454 0.644841
-9.93420219 58.00869370 -0.13430732 0.540050 0.533320 0.651088
25.25624275 62.49418259 18.30019188 0.526406 0.526406 0.667678
36.00582504 81.43490601 13.12469196 0.540454 0.540454 0.644841
15.56956387 72.37092590 17.70435715 0.566679 0.553146 0.610660
4.07560349 72.75904846 25.15405846 0.539598 0.526150 0.657267
18.18923950 80.35780334 6.08446503 0.558342 0.524606 0.642684
31.98309517 61.33035660 19.25854111 0.606901 0.532518 0.589996
2.27330160 69.85472107 22.58246040 0.572045 0.541671 0.615919
4.37902832 77.71568298 22.56945992 0.514358 0.524410 0.678550
20.58860779 75.47074127 17.64756393 0.566679 0.553146 0.610660
21.59503746 69.46099854 18.17909050 0.592680 0.545400 0.592680
31.67645073 59.80241776 18.30235863 0.496968 0.520394 0.694416
18.35088921 53.39434052 23.82707405 0.450472 0.460300 0.764983
-9.92719841 71.14852142 -0.12910345 0.529530 0.536254 0.657290
28.99409294 61.77989197 18.84095573 0.569306 0.565928 0.596336
44.31948471 49.28879166 -0.14060976 0.537208 0.527104 0.658459
35.96653366 68.12685394 13.11481571 0.557562 0.530611 0.638417
27.66016388 95.00202942 -0.13139063 0.536691 0.536691 0.651095
3.45878959 67.60197449 22.58199883 0.459961 0.516418 0.722321
10.44672108 76.62487030 17.93109131 0.558781 0.558781 0.612802
8.08379459 77.20206451 17.51789665 0.556344 0.556344 0.617221
2.14825034 58.58236694 22.59260941 0.586160 0.555754 0.589538
-9.87511158 70.45479584 -0.14285398 0.551407 0.548034 0.628975
0.32301098 69.27420807 22.57717133 0.536254 0.529530 0.657290
1.58110023 55.96459579 22.90641785 0.503424 0.523494 0.687400
-21.94473648 75.17013550 22.83384514 0.474508 0.514467 0.714259
14.67785263 75.72100067 17.55288696 0.570238 0.556701 0.604080
17.31357193 86.73244476 -0.11101921 0.536965 0.523499 0.661527
6.87197208 55.76980591 22.56838417 0.573589 0.553285 0.604045
17.75563622 81.10769653 -0.01939265 0.544185 0.544185 0.638533
32.45770264 63.12709427 18.30471611 0.522334 0.535770 0.663414
43.34516144 48.92444611 -0.11289755 0.536691 0.536691 0.651095
32.00562668 62.66685104 19.21673012 0.625190 0.520711 0.581376
34.73726654 100.25782013 -0.11828479 0.536479 0.533115 0.654201
-4.03295135 57.95230865 22.31149101 0.572417 0.552155 0.606188
31.61343575 62.23828125 19.14630318 0.577185 0.560259 0.594111
10.54542637 34.35406876 -0.12371574 0.551482 0.527871 0.645925
2.81968236 73.10267639 25.15135002 0.532898 0.532898 0.657297
16.45552254 56.82506561 23.80203056 0.455246 0.504909 0.733360
28.80525970 61.37569427 18.31718445 0.534289 0.537660 0.652271
0.75442582 77.21308899 22.62012863 0.537440 0.530701 0.655374
10.56370354 33.86552811 -0.12384324 0.551695 0.531450 0.642801
0.85360336 66.55820465 22.57784081 0.474576 0.527862 0.704371
31.59978104 61.78525543 19.15394974 0.567016 0.567016 0.597483
31.76243401 83.48933411 -0.02291435 0.541807 0.545183 0.639704
18.41534042 78.71462250 17.55286789 0.570140 0.553222 0.607360
33.77862167 60.91262436 19.17041588 0.549053 0.549053 0.630144
8.35965347 75.27579498 17.54994392 0.565386 0.548509 0.616017
9.62849331 73.34980774 19.05695152 0.569306 0.565928 0.596336
-4.27388716 55.88254547 22.30229568 0.572515 0.555627 0.602914
14.92128372 91.22332001 -0.13152528 0.620454 0.559592 0.549448
3.12253642 52.97642899 22.63322639 0.563205 0.553057 0.613944
28.88854408 61.87860107 18.30537033 0.540454 0.540454 0.644841
3.68703246 73.52429199 25.15624428 0.544006 0.540638 0.641692
23.86854172 61.90775299 18.30156136 0.537422 0.550899 0.638504
2.92700601 75.07143402 22.57308006 0.556224 0.552842 0.620468
15.35615635 91.86087036 -0.12686278 0.555234 0.531607 0.639616
32.70908737 58.20200729 18.30175972 0.530256 0.530256 0.661557
5.97892427 54.74225998 22.58659172 0.569905 0.546230 0.613874
-9.92741966 57.14756775 -0.12807651 0.529530 0.536254 0.657290
-0.09272262 66.54558563 22.58079720 0.469350 0.509153 0.721439
32.93662262 63.03993607 19.14747620 0.565870 0.565870 0.599653
13.56101322 56.13262177 23.81716156 0.496368 0.513080 0.700263
3.54523349 69.83072662 22.58048820 0.541234 0.534489 0.649143
3.52029300 70.24503326 22.58592033 0.540454 0.540454 0.644841
24.89244461 62.08219528 18.29724503 0.530701 0.537440 0.655374
0.88319325 72.58217621 25.14759064 0.503954 0.530743 0.681427
23.66266251 60.57205963 18.29834938 0.526406 0.526406 0.667678
5.76881742 55.16151428 22.87973404 0.512633 0.536163 0.670624
2.44435453 64.67192841 23.32137680 0.534678 0.544798 0.645999
-29.49420357 44.71090317 0.02114324 0.522334 0.535770 0.663414
11.48830318 50.02912903 20.96492386 0.473016 0.473016 0.743311
24.32708740 58.09140015 24.56206512 0.686555 0.566283 0.456033
25.29295349 63.41612625 18.29319000 0.519162 0.525883 0.673735
44.17947769 49.68864441 -0.12234452 0.552716 0.552716 0.623707
26.43445969 60.57147980 18.36038780 0.540050 0.533320 0.651088
29.44709396 59.82247162 18.29913521 0.537868 0.537868 0.649151
-50.92919540 43.46515656 0.07414689 0.536561 0.755099 0.376734
18.53362846 76.26995087 18.00571632 0.569306 0.565928 0.596336
32.19962692 69.74472046 13.68202877 0.592842 0.552306 0.586086
33.34016800 62.63099670 19.21048546 0.589296 0.545394 0.596050
32.86410141 62.57664871 19.33093643 0.583561 0.542965 0.603859
29.86665726 61.43196106 19.17159653 0.608615 0.520947 0.598499
-3.63312817 57.61858749 22.57312775 0.575853 0.552211 0.602873
0.29911759 59.99637222 22.48499489 0.580650 0.563721 0.587421
42.57115936 46.86087418 -0.12618293 0.537440 0.530701 0.655374
30.46161652 61.56372070 19.18297386 0.602337 0.531474 0.595588
28.53113937 63.05462265 18.29934120 0.518244 0.528307 0.672543
45.36956787 46.46684265 -0.12298952 0.536965 0.523499 0.661527
31.26775742 59.32527924 18.30101204 0.521346 0.521346 0.675571
-3.78376698 88.85036469 -0.13297339 0.559592 0.549448 0.620454
-19.55680275 88.82751465 -0.11686554 0.532669 0.529309 0.660375
-21.52140427 34.93660736 -0.12007795 0.529076 0.529076 0.663444
43.95185089 46.70037842 -0.12541357 0.530256 0.530256 0.661557
9.17970181 75.21183777 18.82660866 0.559030 0.569163 0.602942
37.23320007 88.28257751 6.44757891 0.539598 0.526150 0.657267
19.80447197 79.44772339 17.55310249 0.566679 0.553146 0.610660
27.90995598 62.14244080 18.29916191 0.541628 0.541628 0.642867
-24.18751717 74.68575287 22.83700180 0.497788 0.531309 0.685506
16.66789055 98.73489380 -0.10494353 0.659958 0.505464 0.555843
32.16838837 92.84886932 -0.13352072 0.536479 0.533115 0.654201
29.38014793 61.37688446 19.14565086 0.610345 0.535954 0.583294
12.78459549 75.28748322 20.48768234 0.565386 0.548509 0.616017
2.04014564 73.19675446 25.15029335 0.502234 0.508908 0.699123
14.31588840 70.12048340 17.54975700 0.579178 0.548784 0.602818
36.21507263 90.52717590 -0.13089356 0.541234 0.534489 0.649143
3.54213810 68.33091736 22.57835388 0.481274 0.507919 0.714418
15.78770161 58.34485245 23.84920692 0.490176 0.526981 0.694276
24.44637680 62.64364624 18.30266953 0.530256 0.530256 0.661557
5.43075228 54.43844604 22.56702805 0.568852 0.548596 0.612740
-4.43902922 56.76322174 22.31188202 0.573484 0.549800 0.607318
1.48159814 67.34203339 22.60869598 0.403726 0.478310 0.779888
22.26091576 74.60037994 17.55390167 0.570029 0.549731 0.610625
3.45375943 68.96042633 22.57216644 0.532898 0.532898 0.657297
29.74585533 58.20968628 18.30741501 0.544185 0.544185 0.638533
41.74378967 85.28825378 6.33912802 0.530256 0.530256 0.661557
32.56568909 63.05659866 19.14382553 0.563495 0.563495 0.604108
14.17331791 79.19557190 17.55223656 0.563205 0.553057 0.613944
10.63330746 34.84302521 -0.11905591 0.551018 0.520687 0.652123
2.34493256 55.51131821 22.86983490 0.551802 0.558552 0.619301
34.80259705 74.60411072 14.50686169 0.580450 0.553374 0.597373
12.43253803 89.57646942 -0.15153269 0.539830 0.529740 0.654186
-0.63857967 78.16906738 22.69336128 0.543624 0.516695 0.661437
3.27502251 75.56346893 22.54321480 0.551695 0.531450 0.642801
-3.97705770 54.10617447 14.35550213 0.572731 0.565973 0.593004
21.21825218 79.39609528 17.55351448 0.563205 0.553057 0.613944
12.19561577 58.53900146 20.97513580 0.515261 0.521975 0.679742
25.61938667 63.46830368 18.30074883 0.530906 0.541018 0.652256
3.69171453 66.75385284 22.57778740 0.407654 0.509158 0.758008
-27.36782074 70.32693481 22.87178802 0.495814 0.519186 0.696143
11.39622974 75.35039520 20.48672867 0.558552 0.551802 0.619301
-14.17450619 59.19932175 -0.12800227 0.536709 0.519885 0.664577
30.52860641 60.66757965 18.98240471 0.559938 0.559938 0.610687
-0.43681714 67.03881073 22.66515541 0.510720 0.524116 0.681518
1.87114370 67.91048431 22.57657623 0.451164 0.500743 0.738720
9.54810810 74.62552643 19.06209946 0.559938 0.559938 0.610687
18.14893913 54.25578308 23.81850052 0.467578 0.490709 0.735238
1.57829797 70.58609009 22.56947708 0.563205 0.553057 0.613944
2.67485571 67.62210846 22.58525467 0.463364 0.513188 0.722449
2.18774652 58.77661133 22.56982994 0.589538 0.555754 0.586160
31.63672066 62.77024460 19.15764999 0.586220 0.559189 0.586220
3.06330800 69.56765747 22.57787704 0.541018 0.530906 0.652256
29.85217857 62.32556152 19.17813301 0.575945 0.555677 0.599591
29.62360573 61.62960434 19.16286087 0.625190 0.520711 0.581376
30.80001068 85.40151215 0.08468724 0.543430 0.706293 0.453689
5.95324850 57.59369659 22.56381035 0.576815 0.546367 0.607262
30.77569199 59.11208344 18.29343987 0.519156 0.542678 0.660286
29.20675278 63.04693604 19.04291153 0.577244 0.563702 0.590787
32.20379639 61.58683014 19.25848198 0.609031 0.531426 0.588786
26.61013412 59.80904770 18.28567505 0.526883 0.533616 0.661550
24.20127678 59.31967545 18.29611015 0.521346 0.521346 0.675571
31.80017281 63.19078827 18.33003044 0.530701 0.537440 0.655374
34.99159241 100.25276184 -0.13011430 0.537660 0.534289 0.652271
32.70853043 62.78226852 19.25336075 0.583995 0.560297 0.587381
30.63348389 63.07917786 19.04808998 0.560028 0.563411 0.607402
32.37486267 70.29434204 13.58588123 0.559835 0.556453 0.613958
0.78794688 65.69570160 22.57699585 0.393526 0.477737 0.785433
4.15708160 55.72745514 22.56933975 0.582688 0.552287 0.596200
16.25364685 97.79048920 -0.11371468 0.673370 0.498730 0.545749
16.35104752 72.25112152 17.92294121 0.556344 0.556344 0.617221
16.73708534 70.53402710 17.55038452 0.563205 0.553057 0.613944
30.12018204 62.81309891 19.14990044 0.580716 0.570558 0.580716
-0.08244945 67.40546417 22.57581902 0.509056 0.492365 0.706002
32.27938843 62.75189972 19.23228264 0.586977 0.542996 0.600510
1.11574960 66.98210907 22.58169174 0.408094 0.476381 0.778794
24.44154930 62.93991470 18.30040169 0.516029 0.532838 0.670670
32.06841660 61.88304138 19.29505920 0.618857 0.527799 0.581759
17.34441566 91.85886383 -0.12719885 0.551482 0.527871 0.645925
17.45739365 52.93605423 23.82203674 0.483945 0.497250 0.720097
35.26679993 67.70339966 13.12259865 0.575748 0.548734 0.606140
32.37708282 69.77857971 13.72275543 0.600661 0.549901 0.580357
1.56784809 57.32283783 22.88330460 0.510160 0.516850 0.687461
10.43298817 75.81712341 20.47511864 0.555057 0.551683 0.622541
26.82230186 58.35017014 18.30789185 0.543815 0.537080 0.644833
5.06239033 57.71509552 22.57399368 0.572417 0.552155 0.606188
26.64214516 85.96187592 -0.01175010 0.547723 0.544352 0.635358
30.87011147 62.76287079 19.10794449 0.587179 0.549952 0.593948
1.84846020 80.18433380 22.58197021 0.519885 0.536709 0.664577
-4.39436340 94.93923950 -0.12085303 0.539598 0.526150 0.657267
-11.46753216 59.95935822 -0.13830587 0.533109 0.519655 0.667648
2.33284783 69.36294556 22.57865143 0.537080 0.543815 0.644833
5.68523550 57.89538574 22.57281494 0.573366 0.546305 0.610576
6.03512955 57.31735229 22.57388115 0.575630 0.545245 0.609391
40.97226715 62.81824875 -0.12734762 0.567016 0.567016 0.597483
40.75196075 60.77043152 -0.14068587 0.567016 0.567016 0.597483
45.12443924 49.57708359 -0.12330557 0.562344 0.562344 0.606250
41.08539581 49.57832718 -0.12187301 0.563495 0.563495 0.604108
35.62754822 99.79697418 -0.14697094 0.559835 0.556453 0.613958
35.63031387 98.45421600 -0.12368455 0.565870 0.565870 0.599653
35.63530350 97.13063812 -0.12653336 0.562254 0.558877 0.609530
35.63265991 87.97769928 -0.13411427 0.551551 0.551551 0.625766
31.29956436 82.78831482 13.13318920 0.558673 0.555297 0.616059
34.59629059 82.50051117 13.12240887 0.562254 0.558877 0.609530
32.39423752 82.73910522 13.12919044 0.558552 0.551802 0.619301
31.96176147 82.24298859 13.12365627 0.563315 0.556548 0.610681
31.61586189 82.17209625 13.12211037 0.566782 0.556631 0.607388
33.63436890 69.85497284 13.67318726 0.566873 0.560105 0.604101
34.65866089 73.71602631 14.41519260 0.570499 0.570499 0.590814
35.90823746 71.09226990 13.12407207 0.570029 0.549731 0.610625
32.78667068 71.17337799 13.71870613 0.570395 0.563625 0.597476
32.79082108 69.60810852 13.71365547 0.573760 0.560220 0.597455
31.37373734 70.54007721 13.12353706 0.566679 0.553146 0.610660
32.06500626 73.28606415 13.12070084 0.559835 0.556453 0.613958
33.66165924 73.08973694 13.12303638 0.563411 0.560028 0.607402
31.36275291 70.07207489 13.11685181 0.573484 0.549800 0.607318
30.85955238 76.18060303 13.12137699 0.559938 0.559938 0.610687
31.87573242 73.39874268 13.12577820 0.563411 0.560028 0.607402
35.81668854 72.77075195 13.13340950 0.517846 0.568450 0.639296
35.90868378 71.84414673 13.12651348 0.565386 0.548509 0.616017
31.44567680 73.12091064 13.12349892 0.558673 0.555297 0.616059
40.33870316 61.07208252 -0.08085737 0.565798 0.562421 0.602955
33.59276581 68.27450562 13.12362003 0.563495 0.563495 0.604108
33.37825394 67.75350952 13.12625313 0.566873 0.560105 0.604101
29.57797050 62.07220840 19.19305992 0.565870 0.565870 0.599653
32.15549088 62.03933334 19.29612160 0.565870 0.565870 0.599653
30.13940811 62.65026474 19.19289589 0.565870 0.565870 0.599653
33.00523758 62.47298813 19.29548264 0.567016 0.567016 0.597483
33.21002197 61.59286118 19.25256348 0.566951 0.563566 0.600799
32.92904663 61.39896011 19.23676491 0.566951 0.563566 0.600799
32.50687790 62.39184570 19.31036186 0.577112 0.556803 0.597421
33.28968430 62.27673340 19.28983879 0.567016 0.567016 0.597483
31.76000404 62.36022949 19.18111420 0.570454 0.567068 0.594152
29.48303795 62.43085480 19.16462326 0.569358 0.569358 0.593011
29.22902107 62.64955902 19.12325478 0.572776 0.569397 0.589673
31.19029427 61.01851273 19.02073097 0.552842 0.556224 0.620468
29.30978203 60.89994431 19.06404877 0.562421 0.565798 0.602955
29.00776291 62.65998840 19.01270103 0.570395 0.563625 0.597476
32.75133514 61.20602036 19.33352852 0.565928 0.569306 0.596336
22.82695198 78.97584534 17.55455017 0.566562 0.549650 0.613916
22.72946167 76.10388947 17.55278397 0.566679 0.553146 0.610660
21.99715805 71.60114288 17.56859207 0.566679 0.553146 0.610660
21.90359688 75.70561218 17.55401230 0.562151 0.555399 0.612795
21.70173073 70.95853424 17.82878876 0.563495 0.563495 0.604108
21.57518959 72.60498810 17.93552971 0.573589 0.553285 0.604045
20.10455132 72.62083435 17.54981232 0.569072 0.555563 0.606223
20.12448120 70.78470612 17.55531693 0.559835 0.556453 0.613958
25.02672386 64.09307861 11.62348843 0.565973 0.572731 0.593004
24.27875137 63.12431335 18.29779243 0.529530 0.536254 0.657290
22.92270279 70.09254456 17.55403900 0.563205 0.553057 0.613944
21.53323364 69.16548920 18.21464539 0.563315 0.556548 0.610681
27.96537971 61.13043213 18.29893684 0.551250 0.544507 0.632167
27.47177696 61.79708099 18.30211639 0.552426 0.545668 0.630137
26.73628235 60.25873184 18.75297546 0.553146 0.566679 0.610660
26.71321678 61.53087997 18.29961967 0.545357 0.545357 0.636531
26.51081657 61.63822556 18.29587555 0.544997 0.538247 0.642860
26.18645477 58.59928894 18.29538536 0.565103 0.541486 0.622456
26.13927269 61.34576416 18.29134750 0.547723 0.544352 0.635358
25.86911201 61.57529449 18.29132652 0.540810 0.547549 0.638526
25.84796906 61.04805374 18.29443169 0.545519 0.548896 0.633342
25.63772964 61.63484192 18.29994011 0.540454 0.540454 0.644841
25.15903473 62.65924835 18.30419731 0.537868 0.537868 0.649151
25.01703262 61.30582428 18.29958153 0.548896 0.545519 0.633342
24.73135757 58.97345734 18.29136086 0.519156 0.542678 0.660286
24.69518471 61.96834183 18.29638100 0.548727 0.541974 0.636524
24.04482651 62.90843201 18.30445290 0.528575 0.521863 0.669528
19.46108627 100.20339203 -0.12290308 0.621439 0.510287 0.594493
19.82556343 90.61078644 -0.13081205 0.662369 0.568463 0.487973
10.21554661 86.08219147 -0.00603882 0.559720 0.552956 0.617214
19.92126083 73.11369324 17.55437279 0.565715 0.558960 0.606243
19.84609222 72.60819244 17.55767250 0.562151 0.555399 0.612795
19.34004402 72.87905121 17.55349350 0.566873 0.560105 0.604101
19.27427101 71.19097900 17.55204391 0.562036 0.551909 0.616045
19.20847702 78.62116241 18.68803215 0.565973 0.572731 0.593004
19.18988419 78.35955048 19.05749130 0.565928 0.569306 0.596336
16.41394806 72.40893555 17.73832512 0.563411 0.560028 0.607402
16.25582695 72.69385529 17.96298027 0.565798 0.562421 0.602955
16.21768379 71.56893921 17.94448280 0.565870 0.565870 0.599653
13.59559441 71.57566833 17.55363464 0.569241 0.562485 0.599646
13.27568913 74.17948914 20.47170258 0.565715 0.558960 0.606243
12.65151787 75.68530273 20.47747612 0.559835 0.556453 0.613958
12.02770424 73.99128723 20.47635078 0.566679 0.553146 0.610660
18.95780754 69.84419250 17.99625969 0.562344 0.562344 0.606250
18.25500679 70.39412689 18.00624847 0.565870 0.565870 0.599653
14.99927807 60.06554794 8.39335823 0.625055 0.584620 0.517229
16.97169685 55.70310593 23.81691742 0.528307 0.518244 0.672543
13.47507381 55.01241302 23.81657791 0.510984 0.527737 0.678520
13.16085529 56.90205765 23.81896019 0.500303 0.530422 0.684361
0.86534542 82.31244659 3.57094455 0.538247 0.544997 0.642860
10.50031567 73.21693420 20.46962166 0.566679 0.553146 0.610660
10.40075588 73.61178589 20.48195267 0.565508 0.552004 0.612775
9.88353539 75.52460480 20.47660255 0.559835 0.556453 0.613958
8.03992844 73.86841583 17.55686760 0.549555 0.563083 0.617193
4.80718279 77.02505493 23.39481926 0.534489 0.541234 0.649143
4.81023359 73.52553558 23.39801979 0.536892 0.540258 0.647973
8.04869938 69.69529724 17.55215454 0.568722 0.545096 0.615975
8.00786209 70.21047211 17.55081367 0.568852 0.548596 0.612740
4.27237988 59.52195358 22.33830261 0.570140 0.553222 0.607360
6.72949076 53.64216995 22.56618881 0.570140 0.553222 0.607360
6.70998764 57.51375580 22.57177162 0.572515 0.555627 0.602914
6.68801546 55.88779831 22.57597923 0.570323 0.560169 0.600785
6.08027124 57.45246506 22.57627106 0.570140 0.553222 0.607360
6.02576733 56.87765503 22.57188606 0.569241 0.562485 0.599646
5.81876516 53.59653473 22.56642151 0.565508 0.552004 0.612775
5.73442268 54.54265213 22.56754684 0.570323 0.560169 0.600785
5.27981377 56.47538757 22.96093750 0.493488 0.536982 0.684192
