12697262.48,2594540.11,130.4,5
12697263.91,2594548.94,125.87,5
12697267.81,2594560.34,125.7,5
12697268.01,2594547.7,129.5,5
12697286.49,2594554.21,125.78,5
12697289.22,2594557.35,125.86,5
12697262.7,2594548.71,125.87,5
12697262.14,2594546.61,129.5,5
12697290.72,2594550.21,125.74,5
12697280.31,2594549.4,129.34,5
12697264.12,2594539.23,129.51,5
12697260.04,2594551.97,130.33,5
12697280.43,2594551.12,129.19,5
12697263.87,2594537.18,127.49,5
12697267.37,2594539.84,129.45,5
12697281.85,2594543.9,129.14,5
12697258.96,2594545.74,127.39,5
12697257.2,2594560.78,128.91,5
12697260.44,2594546.0,130.31,5
12697259.59,2594548.14,127.29,5
12697264.46,2594557.26,129.64,5
12697280.26,2594548.75,129.96,5
12697258.64,2594547.23,127.28,5
12697259.32,2594550.37,129.54,5
12697257.51,2594553.58,127.43,5
12697269.36,2594564.78,127.48,5
12697266.57,2594545.66,129.59,5
12697260.95,2594559.64,125.76,5
12697268.86,2594548.22,127.41,5
12697259.08,2594557.13,130.37,5
12697291.45,2594564.6,126.06,5
12697271.69,2594558.63,130.17,5
12697259.94,2594545.78,129.39,5
12697258.83,2594552.54,129.36,5
12697262.63,2594547.94,127.29,5
12697261.54,2594545.2,130.29,5
12697254.71,2594562.36,78.48,5
12697258.76,2594561.83,126.79,5
12697265.76,2594555.34,130.33,5
12697289.41,2594543.94,129.23,5
12697266.86,2594559.54,126.66,5
12697269.37,2594564.84,127.67,5
12697284.86,2594546.17,129.13,5
12697268.49,2594549.06,127.38,5
12697271.16,2594558.98,130.33,5
12697284.11,2594539.85,129.41,5
12697281.88,2594560.98,125.77,5
12697281.75,2594569.85,131.65,5
12697269.33,2594540.4,129.92,5
12697284.4,2594540.04,131.61,5
12697271.5,2594552.64,129.72,5
12697283.49,2594544.69,129.14,5
12697287.43,2594555.99,125.83,5
12697284.76,2594540.38,127.76,5
12697260.05,2594558.2,129.44,5
12697275.3,2594549.45,125.93,5
12697275.02,2594550.36,125.91,5
12697271.75,2594560.34,129.48,5
12697271.19,2594556.55,130.02,5
12697293.13,2594546.84,126.16,5
12697281.09,2594551.95,128.2,5
12697286.06,2594552.67,127.37,5
12697270.65,2594561.52,126.28,5
12697274.27,2594567.62,129.36,5
12697280.7,2594567.85,131.73,5
12697289.5,2594540.19,131.13,5
12697265.02,2594551.35,129.35,5
12697279.59,2594566.52,131.25,5
12697290.6,2594546.15,129.43,5
12697288.63,2594550.34,126.18,5
12697262.78,2594545.94,129.45,5
12697275.22,2594543.99,129.51,5
12697280.84,2594566.79,131.37,5
12697287.34,2594540.78,125.62,5
12697288.62,2594540.7,126.67,5
12697292.88,2594541.5,126.9,5
12697285.64,2594544.25,130.42,5
12697295.39,2594542.46,129.04,5
12697259.91,2594554.22,130.27,5
12697287.25,2594540.41,129.39,5
12697275.07,2594550.56,125.88,5
12697283.01,2594571.01,131.65,5
12697294.03,2594546.22,125.84,5
12697284.84,2594569.94,138.16,5
12697274.06,2594545.4,129.81,5
12697286.68,2594544.58,129.26,5
12697292.5,2594551.19,125.7,5
12697287.92,2594536.75,131.19,5
12697267.17,2594554.4,129.38,5
12697261.21,2594538.63,129.4,5
12697291.71,2594564.77,126.26,5
12697288.91,2594540.82,129.58,5
12697264.61,2594547.39,127.24,5
12697286.11,2594550.66,129.22,5
12697290.72,2594550.27,126.09,5
12697287.61,2594568.24,127.7,5
12697283.09,2594563.31,125.71,5
12697274.75,2594548.3,129.47,5
12697289.5,2594546.68,126.62,5
12697273.81,2594558.44,125.83,5
12697292.25,2594567.88,128.47,5
12697295.62,2594547.27,127.09,5
12697282.14,2594545.6,129.19,5
12697255.94,2594558.36,125.86,5
12697296.91,2594548.09,127.54,5
12697273.37,2594557.39,127.28,5
12697284.01,2594570.44,131.72,5
12697288.25,2594536.72,131.53,5
12697286.34,2594554.75,125.88,5
12697279.93,2594559.38,125.84,5
12697282.0,2594544.29,129.24,5
12697270.92,2594566.82,81.84,5
12697282.33,2594571.16,92.96,5
12697291.19,2594569.05,80.0,5
12697282.9,2594571.29,86.13,5
12697290.09,2594538.41,84.58,5
12697289.59,2594538.62,79.42,5
12697283.39,2594542.72,127.84,5
12697287.47,2594553.21,126.25,5
12697288.2,2594568.19,127.23,5
12697281.41,2594566.65,129.23,5
12697283.28,2594563.91,125.63,5
12697289.0,2594549.9,129.29,5
12697286.16,2594550.1,129.24,5
12697290.73,2594540.63,127.58,5
12697282.11,2594556.66,125.79,5
12697297.11,2594548.8,97.26,5
12697284.64,2594571.62,124.66,5
12697290.42,2594540.29,131.32,5
12697284.22,2594562.74,125.7,5
12697292.58,2594547.01,126.37,5
12697290.21,2594539.72,78.72,5
12697284.9,2594571.58,130.0,5
12697290.21,2594567.03,126.37,5
12697284.95,2594546.95,129.15,5
12697288.58,2594547.13,129.48,5
12697284.12,2594570.34,131.3,5
12697279.39,2594562.22,125.79,5
12697297.0,2594549.08,118.55,5
12697292.38,2594549.01,125.94,5
12697290.45,2594538.4,90.4,5
12697286.18,2594544.43,130.35,5
12697285.11,2594567.49,131.56,5
12697290.16,2594540.2,123.86,5
12697289.47,2594546.75,126.18,5
12697285.55,2594567.51,125.69,5
12697284.84,2594571.74,127.72,5
12697273.44,2594559.68,127.38,5
12697282.67,2594542.56,128.34,5
12697275.87,2594545.18,129.67,5
12697276.33,2594542.62,129.65,5
12697274.27,2594554.21,129.7,5
12697291.39,2594566.68,128.79,5
12697284.87,2594546.18,129.17,5
12697279.43,2594538.59,130.63,5
12697281.99,2594542.59,129.38,5
12697284.16,2594552.26,129.47,5
12697285.47,2594568.05,127.9,5
12697261.74,2594560.97,126.42,5
12697275.65,2594543.85,128.43,5
12697271.66,2594556.39,130.36,5
12697272.26,2594564.37,125.62,5
12697260.33,2594561.27,126.96,5
12697289.51,2594543.89,129.15,5
12697271.26,2594563.45,125.72,5
12697291.5,2594548.96,126.28,5
12697285.0,2594568.86,130.98,5
12697274.02,2594566.02,125.81,5
12697274.72,2594553.46,127.07,5
12697273.09,2594540.9,129.46,5
12697278.76,2594565.79,125.72,5
12697280.97,2594566.62,125.71,5
12697266.61,2594537.95,125.93,5
12697277.55,2594566.27,131.2,5
12697262.01,2594550.47,127.38,5
12697297.09,2594549.05,127.46,5
12697270.52,2594562.55,126.16,5
12697291.07,2594544.44,129.67,5
12697279.68,2594551.21,129.21,5
12697267.68,2594564.06,125.66,5
12697277.12,2594567.14,129.22,5
12697285.19,2594568.52,129.89,5
12697267.12,2594554.44,129.43,5
12697276.93,2594568.67,131.1,5
12697267.41,2594539.78,129.6,5
12697269.63,2594543.95,129.32,5
12697268.13,2594552.95,129.41,5
12697290.89,2594540.26,130.57,5
12697278.98,2594568.35,131.72,5
12697292.9,2594548.26,125.8,5
12697274.26,2594551.22,125.92,5
12697268.55,2594552.36,128.54,5
12697274.26,2594565.64,131.37,5
12697272.05,2594558.85,130.07,5
12697273.99,2594540.61,125.84,5
12697286.68,2594543.34,127.77,5
12697286.3,2594567.87,127.24,5
12697260.31,2594551.68,130.22,5
12697262.51,2594540.05,130.32,5
12697263.42,2594544.27,129.0,5
12697287.17,2594536.58,131.64,5
12697274.01,2594555.46,125.87,5
12697273.19,2594559.2,125.75,5
12697259.03,2594555.86,129.5,5
12697273.12,2594558.01,128.54,5
12697272.53,2594540.15,125.76,5
12697279.51,2594537.1,130.57,5
12697279.21,2594537.87,129.6,5
12697288.15,2594559.76,125.87,5
12697273.59,2594557.19,127.49,5
12697263.36,2594537.27,126.22,5
12697278.82,2594566.5,129.26,5
12697272.55,2594558.09,129.51,5
12697261.79,2594552.37,129.59,5
12697269.63,2594541.84,129.4,5
12697263.3,2594543.36,129.49,5
12697289.49,2594546.53,129.43,5
12697261.75,2594556.53,128.84,5
12697262.39,2594545.03,130.0,5
12697272.52,2594556.35,130.12,5
12697283.62,2594536.65,130.48,5
12697286.31,2594556.76,125.83,5
12697259.48,2594553.28,129.44,5
12697287.86,2594561.06,125.77,5
12697282.85,2594538.98,130.19,5
12697261.2,2594551.46,129.92,5
12697283.27,2594550.88,129.2,5
12697282.98,2594542.39,128.41,5
12697275.92,2594545.17,129.77,5
12697277.88,2594536.99,125.47,5
12697268.16,2594549.65,125.88,5
12697263.85,2594548.94,125.89,5
12697273.03,2594568.97,124.15,5
12697278.68,2594538.71,128.26,5
12697272.38,2594543.12,129.62,5
12697270.49,2594554.23,129.48,5
12697276.39,2594542.6,129.76,5
12697261.52,2594541.66,129.87,5
12697270.34,2594549.33,127.31,5
12697267.38,2594542.75,129.86,5
12697265.86,2594561.61,125.73,5
12697272.85,2594568.49,130.4,5
12697258.72,2594552.56,129.48,5
12697260.92,2594538.65,127.16,5
12697254.34,2594562.06,127.57,5
12697273.27,2594567.43,131.7,5
12697284.98,2594552.36,129.6,5
12697264.79,2594556.93,129.87,5
12697283.56,2594542.93,129.35,5
12697285.93,2594545.22,129.19,5
12697262.71,2594547.92,127.26,5
12697277.51,2594569.23,131.59,5
12697267.58,2594544.02,130.24,5
12697280.46,2594566.86,129.99,5
12697261.8,2594550.44,127.56,5
12697261.48,2594542.88,130.54,5
12697265.76,2594537.55,126.49,5
12697267.62,2594540.26,129.68,5
12697267.03,2594554.39,129.74,5
12697273.85,2594566.28,125.62,5
12697273.89,2594565.2,125.84,5
12697258.01,2594552.13,128.6,5
12697266.72,2594562.95,125.85,5
12697269.57,2594550.13,126.94,5
12697258.09,2594550.95,127.71,5
12697271.88,2594556.03,130.37,5
12697261.02,2594552.88,129.68,5
12697285.93,2594544.41,130.1,5
12697276.58,2594537.4,123.39,5
12697284.96,2594567.78,131.39,5
12697284.59,2594545.16,129.13,5
12697269.5,2594564.98,127.41,5
12697269.82,2594558.63,129.38,5
12697270.22,2594556.05,129.45,5
12697290.79,2594537.43,131.32,5
12697271.33,2594556.69,130.26,5
12697270.77,2594564.52,125.47,5
12697257.13,2594556.19,127.69,5
12697290.21,2594540.49,131.48,5
12697285.01,2594569.35,131.29,5
12697296.36,2594548.91,126.19,5
12697275.4,2594543.97,129.31,5
12697289.85,2594542.07,125.4,5
12697290.5,2594538.84,131.46,5
12697279.77,2594535.34,131.39,5
12697285.7,2594543.57,129.41,5
12697273.13,2594543.97,129.54,5
12697260.16,2594558.07,129.56,5
12697293.26,2594549.2,127.2,5
12697284.92,2594552.61,126.13,5
12697278.1,2594537.6,123.64,5
12697295.06,2594544.46,125.64,5
12697289.51,2594557.36,125.82,5
12697296.26,2594542.05,128.95,5
12697290.46,2594554.18,125.81,5
12697293.64,2594554.79,125.83,5
12697292.66,2594550.88,127.68,5
12697259.68,2594550.79,129.63,5
12697277.84,2594556.22,125.88,5
12697279.13,2594562.93,125.72,5
12697291.17,2594566.08,126.84,5
12697284.49,2594571.09,85.87,5
12697284.98,2594571.6,124.96,5
12697289.47,2594568.6,128.15,5
12697286.18,2594550.1,129.24,5
12697291.49,2594545.63,127.18,5
12697297.05,2594549.03,118.61,5
12697290.66,2594537.44,131.7,5
12697284.84,2594568.1,128.65,5
12697273.44,2594559.65,127.35,5
12697260.36,2594551.62,130.23,5
12697260.31,2594561.36,126.97,5
12697267.8,2594560.4,125.74,5
12697262.49,2594540.01,130.27,5
12697268.2,2594549.66,125.85,5
12697292.7,2594546.99,126.46,5
12697272.81,2594560.62,126.85,5
12697258.28,2594561.81,125.86,5
12697272.6,2594558.09,129.41,5
12697274.16,2594555.78,125.69,5
12697270.75,2594561.51,126.01,5
12697273.25,2594558.32,127.37,5
12697255.28,2594561.44,128.59,5
12697293.92,2594543.6,125.85,5
12697258.64,2594561.01,127.45,5
12697286.28,2594552.47,127.55,5
12697262.34,2594554.7,129.88,5
12697276.07,2594541.46,127.02,5
12697268.06,2594543.79,130.47,5
12697267.04,2594559.61,126.9,5
12697274.47,2594565.68,130.26,5
12697290.69,2594539.66,124.9,5
12697293.11,2594548.33,126.42,5
12697280.13,2594566.94,129.69,5
12697291.8,2594567.04,129.04,5
12697288.85,2594550.46,126.4,5
12697275.23,2594547.97,127.39,5
12697283.36,2594536.06,131.24,5
12697272.87,2594560.97,126.01,5
12697260.78,2594541.26,129.45,5
12697285.25,2594550.98,128.9,5
12697273.86,2594566.38,130.79,5
12697282.85,2594551.41,129.18,5
12697273.43,2594540.83,129.36,5
12697275.57,2594543.09,129.28,5
12697273.43,2594554.67,129.27,5
12697268.99,2594540.19,129.56,5
12697261.63,2594550.37,127.28,5
12697267.82,2594547.6,129.25,5
12697280.54,2594569.56,131.52,5
12697266.66,2594558.83,129.31,5
12697260.78,2594557.77,129.29,5
12697259.76,2594557.28,129.72,5
12697273.52,2594556.36,127.21,5
12697281.77,2594557.79,125.51,5
12697263.66,2594539.04,129.22,5
12697279.91,2594550.16,129.01,5
12697272.29,2594559.54,129.26,5
12697267.95,2594545.76,129.88,5
12697280.52,2594567.78,131.45,5
12697271.8,2594558.87,129.79,5
12697272.42,2594560.55,126.78,5
12697264.58,2594548.3,127.29,5
12697257.95,2594557.26,129.31,5
12697265.81,2594559.34,129.62,5
12697254.34,2594562.32,128.05,5
12697266.84,2594563.07,125.73,5
12697261.64,2594542.91,130.3,5
12697257.63,2594553.51,127.63,5
12697273.05,2594543.95,129.64,5
12697267.24,2594542.87,129.6,5
12697273.02,2594568.21,116.46,5
12697258.79,2594555.98,129.62,5
12697266.77,2594545.46,129.58,5
12697267.73,2594551.94,129.6,5
12697270.65,2594562.25,125.72,5
12697261.04,2594562.08,126.1,5
12697272.48,2594560.97,125.77,5
12697290.4,2594544.23,129.44,5
12697272.92,2594568.59,109.56,5
12697273.93,2594569.4,131.83,5
12697278.08,2594568.79,131.91,5
12697273.94,2594566.34,126.06,5
12697294.88,2594553.03,125.96,5
12697272.18,2594544.26,129.43,5
12697272.91,2594565.62,127.72,5
12697286.14,2594544.46,130.71,5
12697259.98,2594551.98,130.36,5
12697280.57,2594567.81,131.83,5
12697273.24,2594566.16,130.31,5
12697281.0,2594552.01,128.33,5
12697296.31,2594548.86,126.3,5
12697292.52,2594550.65,126.18,5
12697289.24,2594548.17,128.49,5
12697284.51,2594570.59,131.59,5
12697290.08,2594568.72,127.79,5
12697266.68,2594559.73,126.89,5
12697273.89,2594564.75,117.79,5
12697263.55,2594558.49,129.59,5
12697273.12,2594567.32,128.53,5
12697282.97,2594570.98,131.57,5
12697276.99,2594568.51,130.03,5
12697274.12,2594565.68,131.66,5
12697227.27,2594528.38,102.46,4
12697247.74,2594533.32,129.31,4
12697245.55,2594537.89,126.78,4
12697240.53,2594556.59,127.05,4
12697240.08,2594534.25,127.29,4
12697241.8,2594533.89,126.7,4
12697245.01,2594538.61,126.58,4
12697225.54,2594556.97,127.8,4
12697233.83,2594545.19,128.23,4
12697221.13,2594547.79,131.9,4
12697220.68,2594550.24,131.96,4
12697238.05,2594547.97,132.02,4
12697227.31,2594558.28,127.7,4
12697240.27,2594537.55,132.89,4
12697218.25,2594532.33,127.17,4
12697221.59,2594545.29,131.95,4
12697217.74,2594556.21,127.36,4
12697230.16,2594557.04,128.47,4
12697223.49,2594540.09,126.62,4
12697245.85,2594567.24,132.01,4
12697227.76,2594547.09,130.91,4
12697225.25,2594530.71,128.47,4
12697239.56,2594536.58,132.88,4
12697225.9,2594554.74,127.35,4
12697236.34,2594536.54,128.36,4
12697230.87,2594541.98,127.93,4
12697218.3,2594555.14,127.85,4
12697228.01,2594555.14,127.34,4
12697223.13,2594542.45,127.82,4
12697243.76,2594532.35,127.98,4
12697239.35,2594533.84,126.32,4
12697231.14,2594548.33,131.11,4
12697238.66,2594548.84,131.12,4
12697242.64,2594532.52,127.64,4
12697222.67,2594532.24,126.61,4
12697227.8,2594531.86,127.97,4
12697229.24,2594536.85,133.1,4
12697229.47,2594544.79,128.27,4
12697238.22,2594546.42,128.22,4
12697239.1,2594538.89,132.85,4
12697230.97,2594532.49,127.83,4
12697219.87,2594540.05,126.74,4
12697234.21,2594535.65,128.09,4
12697231.94,2594534.63,127.66,4
12697233.04,2594537.24,129.19,4
12697227.24,2594536.07,133.15,4
12697226.82,2594529.59,127.45,4
12697242.84,2594546.7,127.77,4
12697228.64,2594529.82,127.41,4
12697230.72,2594546.92,131.43,4
12697221.1,2594536.58,126.56,4
12697229.06,2594543.35,127.89,4
12697243.81,2594542.88,126.91,4
12697231.28,2594559.8,127.71,4
12697215.65,2594556.82,131.55,4
12697233.0,2594543.32,128.06,4
12697227.99,2594561.72,131.39,4
12697216.59,2594541.14,127.78,4
12697228.48,2594548.33,130.97,4
12697214.41,2594553.86,127.54,4
12697229.37,2594535.83,132.96,4
12697224.37,2594531.29,128.43,4
12697238.06,2594538.71,132.99,4
12697243.49,2594545.2,128.05,4
12697227.93,2594536.71,133.13,4
12697245.36,2594540.64,126.53,4
12697229.11,2594561.94,131.39,4
12697222.66,2594528.37,129.37,4
12697232.7,2594541.71,127.79,4
12697236.03,2594582.24,127.79,4
12697233.84,2594550.89,127.57,4
12697215.44,2594572.25,131.51,4
12697243.85,2594572.43,131.81,4
12697233.17,2594555.22,127.2,4
12697227.28,2594550.01,130.71,4
12697227.95,2594566.0,130.62,4
12697232.03,2594574.32,126.73,4
12697230.06,2594533.44,133.2,4
12697213.42,2594566.0,131.63,4
12697227.78,2594572.2,127.53,4
12697229.64,2594555.05,126.86,4
12697245.37,2594543.08,129.34,4
12697216.44,2594526.98,123.15,4
12697218.39,2594548.16,130.9,4
12697239.61,2594561.07,127.15,4
12697221.63,2594530.46,126.61,4
12697243.4,2594534.59,126.96,4
12697233.86,2594541.02,128.15,4
12697217.69,2594533.06,126.53,4
12697214.34,2594572.48,131.04,4
12697211.22,2594572.27,127.43,4
12697218.1,2594527.51,128.17,4
12697223.21,2594555.05,127.83,4
12697233.25,2594578.52,131.37,4
12697229.83,2594545.72,131.34,4
12697218.5,2594564.25,130.02,4
12697219.42,2594549.27,130.97,4
12697215.58,2594569.93,130.99,4
12697232.46,2594575.38,130.99,4
12697223.33,2594576.59,131.0,4
12697231.91,2594578.16,130.98,4
12697215.8,2594569.13,128.12,4
12697244.36,2594540.37,126.56,4
12697220.66,2594539.08,126.57,4
12697226.72,2594567.99,131.77,4
12697222.54,2594548.3,130.89,4
12697237.15,2594549.91,130.95,4
12697235.45,2594550.09,130.85,4
12697222.02,2594531.51,126.61,4
12697219.91,2594545.75,130.95,4
12697223.83,2594573.78,131.02,4
12697218.17,2594550.72,130.87,4
12697225.5,2594535.82,126.72,4
12697229.82,2594535.23,133.04,4
12697226.91,2594572.49,127.88,4
12697226.47,2594533.91,127.77,4
12697219.88,2594546.79,130.94,4
12697215.34,2594551.71,127.83,4
12697210.23,2594563.15,131.74,4
12697219.4,2594532.78,126.99,4
12697224.18,2594534.38,126.68,4
12697215.14,2594553.37,127.81,4
12697212.82,2594558.53,131.64,4
12697227.26,2594549.97,130.85,4
12697215.73,2594547.62,127.72,4
12697230.19,2594557.02,128.5,4
12697227.01,2594532.64,133.35,4
12697210.06,2594569.21,128.01,4
12697216.36,2594548.78,127.96,4
12697240.32,2594564.24,131.61,4
12697211.24,2594572.89,127.66,4
12697216.6,2594542.54,127.79,4
12697218.99,2594545.85,130.96,4
12697223.37,2594533.38,126.62,4
12697228.71,2594532.76,133.32,4
12697217.84,2594549.44,130.48,4
12697211.51,2594571.77,127.7,4
12697212.36,2594568.96,126.62,4
12697210.07,2594569.14,128.11,4
12697211.05,2594580.1,128.14,4
12697214.06,2594567.89,127.36,4
12697217.73,2594556.21,127.39,4
12697211.57,2594570.65,126.75,4
12697220.74,2594530.42,126.69,4
12697214.32,2594580.89,128.23,4
12697210.31,2594571.36,127.87,4
12697221.36,2594536.02,126.68,4
12697215.06,2594553.18,127.82,4
12697219.02,2594535.59,126.57,4
12697217.09,2594537.66,126.62,4
12697218.98,2594533.74,126.54,4
12697211.03,2594573.43,127.58,4
12697209.87,2594580.11,129.98,4
12697210.73,2594577.85,128.01,4
12697217.98,2594554.68,127.74,4
12697214.69,2594574.89,130.97,4
12697219.77,2594529.82,126.86,4
12697231.56,2594585.42,127.95,4
12697245.53,2594537.9,126.78,4
12697220.66,2594550.27,131.94,4
12697212.26,2594559.42,129.86,4
12697221.53,2594571.52,127.62,4
12697229.5,2594541.08,127.61,4
12697230.7,2594579.82,130.8,4
12697233.06,2594545.09,128.28,4
12697233.03,2594583.65,128.82,4
12697236.8,2594573.47,127.62,4
12697208.02,2594563.77,131.88,4
12697214.92,2594574.82,131.34,4
12697215.36,2594572.35,131.35,4
12697225.4,2594584.28,128.43,4
12697229.8,2594535.23,133.12,4
12697238.02,2594547.99,131.97,4
12697224.96,2594552.92,127.48,4
12697225.08,2594540.64,127.73,4
12697240.22,2594553.28,127.98,4
12697231.42,2594572.53,127.59,4
12697230.03,2594554.43,126.89,4
12697227.53,2594580.82,127.85,4
12697222.13,2594578.24,130.79,4
12697213.51,2594576.39,130.84,4
12697228.34,2594572.9,127.84,4
12697223.77,2594582.62,128.09,4
12697228.43,2594555.64,127.26,4
12697208.26,2594562.6,131.91,4
12697224.66,2594546.95,127.33,4
12697233.45,2594573.75,127.77,4
12697230.32,2594572.33,127.6,4
12697236.91,2594547.05,130.89,4
12697219.14,2594546.8,130.95,4
12697232.34,2594553.49,127.59,4
12697229.68,2594549.95,130.98,4
12697227.75,2594547.08,130.86,4
12697219.18,2594548.6,130.9,4
12697225.48,2594547.47,126.89,4
12697232.62,2594532.75,127.89,4
12697232.42,2594577.17,131.5,4
12697222.35,2594571.79,127.29,4
12697229.73,2594575.15,127.85,4
12697213.5,2594573.56,130.91,4
12697227.14,2594558.18,127.52,4
12697225.13,2594534.29,126.69,4
12697222.08,2594551.5,130.7,4
12697231.24,2594577.9,131.22,4
12697209.15,2594578.35,126.47,4
12697235.28,2594533.71,127.16,4
12697236.78,2594582.1,127.71,4
12697239.83,2594544.68,128.43,4
12697208.73,2594579.22,126.44,4
12697227.3,2594557.26,128.12,4
12697229.18,2594570.61,127.97,4
12697223.93,2594536.5,126.94,4
12697227.9,2594582.21,128.39,4
12697217.42,2594535.67,126.51,4
12697234.35,2594533.35,127.15,4
12697223.56,2594569.59,127.83,4
12697237.4,2594556.4,128.01,4
12697234.23,2594542.38,127.92,4
12697222.28,2594542.67,128.21,4
12697230.34,2594571.21,127.81,4
12697242.68,2594538.74,126.67,4
12697243.24,2594543.97,127.28,4
12697219.6,2594527.72,129.8,4
12697234.22,2594583.64,128.55,4
12697230.95,2594539.8,127.74,4
12697233.65,2594579.47,131.38,4
12697222.41,2594556.61,128.65,4
12697236.35,2594574.38,127.88,4
12697215.83,2594576.27,132.12,4
12697244.58,2594538.36,126.49,4
12697216.53,2594536.08,126.52,4
12697237.22,2594548.27,130.92,4
12697235.1,2594577.03,130.99,4
12697231.08,2594552.49,126.79,4
12697237.95,2594534.09,133.2,4
12697212.07,2594580.63,126.32,4
12697239.83,2594551.54,131.07,4
12697224.02,2594557.45,127.65,4
12697218.36,2594541.89,127.84,4
12697238.95,2594550.68,131.46,4
12697239.64,2594537.97,132.69,4
12697224.18,2594534.35,126.71,4
12697234.35,2594563.24,131.4,4
12697228.67,2594544.73,127.37,4
12697222.25,2594552.59,127.95,4
12697227.15,2594545.99,131.12,4
12697244.98,2594537.46,127.23,4
12697221.1,2594547.78,131.94,4
12697229.38,2594541.15,127.88,4
12697220.76,2594555.58,127.66,4
12697238.53,2594574.94,127.54,4
12697245.76,2594566.63,131.88,4
12697216.95,2594581.51,128.39,4
12697217.25,2594578.82,127.71,4
12697218.34,2594561.12,131.39,4
12697218.55,2594540.96,127.74,4
12697222.65,2594576.51,130.99,4
12697218.18,2594550.78,130.83,4
12697218.87,2594572.52,128.06,4
12697228.93,2594576.21,126.83,4
12697218.07,2594566.46,131.49,4
12697237.42,2594572.53,127.68,4
12697224.2,2594555.67,127.6,4
12697232.58,2594543.39,126.83,4
12697243.26,2594545.32,128.63,4
12697243.84,2594569.14,131.69,4
12697242.7,2594538.73,126.66,4
12697246.43,2594563.88,131.87,4
12697232.33,2594578.38,131.36,4
12697221.13,2594531.55,126.72,4
12697239.71,2594556.25,126.72,4
12697234.58,2594579.84,130.98,4
12697218.22,2594571.48,130.88,4
12697227.21,2594573.85,128.47,4
12697236.88,2594546.96,130.66,4
12697244.61,2594570.03,131.67,4
12697243.83,2594572.41,132.05,4
12697243.09,2594570.58,131.69,4
12697244.15,2594563.05,131.67,4
12697219.68,2594531.79,126.48,4
12697239.96,2594541.51,127.74,4
12697243.91,2594567.78,131.69,4
12697240.28,2594548.71,130.95,4
12697243.75,2594535.29,127.05,4
12697240.59,2594570.87,131.44,4
12697216.21,2594554.67,127.92,4
12697220.08,2594530.87,127.14,4
12697245.11,2594571.03,131.91,4
12697229.5,2594572.44,127.68,4
12697209.6,2594555.25,131.96,4
12697246.55,2594562.92,131.9,4
12697215.12,2594552.9,127.81,4
12697217.1,2594538.07,126.63,4
12697243.27,2594569.6,131.67,4
12697245.78,2594567.25,131.93,4
12697245.57,2594568.52,131.95,4
12697245.28,2594543.1,129.3,4
12697246.42,2594565.29,124.64,4
12697242.28,2594568.81,131.69,4
12697243.69,2594549.9,127.79,4
12697240.22,2594553.28,128.08,4
12697238.01,2594548.0,131.99,4
12697231.45,2594572.53,127.63,4
12697233.37,2594585.43,126.73,4
12697231.67,2594575.26,131.03,4
12697233.56,2594544.43,127.8,4
12697232.73,2594573.07,127.69,4
12697228.79,2594582.27,128.4,4
12697243.76,2594532.37,127.97,4
12697232.61,2594543.6,127.99,4
12697245.34,2594543.09,129.38,4
12697239.28,2594552.25,130.57,4
12697234.65,2594573.19,127.7,4
12697239.87,2594544.94,128.96,4
12697234.72,2594557.39,129.66,4
12697234.64,2594571.48,128.12,4
12697241.64,2594544.82,127.04,4
12697243.98,2594542.93,127.32,4
12697242.33,2594570.85,131.69,4
12697233.48,2594552.08,127.21,4
12697242.53,2594544.96,126.92,4
12697236.06,2594550.73,130.94,4
12697229.63,2594577.92,127.66,4
12697225.03,2594552.67,127.45,4
12697244.56,2594532.03,130.76,4
12697214.43,2594564.76,131.42,4
12697221.56,2594545.32,131.97,4
12697224.21,2594570.16,127.67,4
12697209.69,2594554.6,131.86,4
12697219.87,2594581.56,127.7,4
12697225.42,2594539.43,127.7,4
12697226.88,2594564.86,130.77,4
12697245.11,2594571.05,132.04,4
12697239.39,2594543.54,128.03,4
12697225.1,2594582.13,128.06,4
12697234.8,2594534.53,128.2,4
12697230.34,2594572.34,127.65,4
12697227.86,2594542.82,127.74,4
12697223.74,2594571.17,127.59,4
12697229.18,2594565.24,130.71,4
12697222.35,2594571.76,127.36,4
12697226.52,2594540.73,127.96,4
12697226.07,2594571.54,127.56,4
12697228.78,2594574.81,127.83,4
12697225.96,2594580.5,127.84,4
12697223.08,2594554.93,127.86,4
12697228.15,2594584.41,126.87,4
12697234.26,2594583.58,129.42,4
12697226.1,2594555.06,127.39,4
12697210.6,2594577.77,127.82,4
12697226.7,2594529.55,127.67,4
12697231.11,2594543.37,129.2,4
12697220.59,2594567.99,127.79,4
12697225.59,2594556.61,127.8,4
12697214.95,2594559.06,131.55,4
12697229.96,2594532.67,133.37,4
12697238.55,2594571.38,127.53,4
12697230.72,2594570.74,128.2,4
12697220.24,2594544.31,131.22,4
12697230.98,2594532.82,133.26,4
12697219.41,2594575.54,126.97,4
12697212.5,2594577.53,128.03,4
12697210.21,2594573.51,127.74,4
12697214.04,2594567.89,127.32,4
12697216.39,2594573.35,132.01,4
12697221.09,2594547.79,131.97,4
12697215.7,2594568.74,128.13,4
12697223.26,2594582.5,128.05,4
12697211.7,2594575.18,126.59,4
12697219.87,2594531.36,126.53,4
12697229.49,2594570.99,127.71,4
12697242.32,2594556.66,127.28,4
12697230.27,2594533.58,133.04,4
12697240.3,2594547.76,131.26,4
12697232.91,2594542.36,127.98,4
12697243.82,2594534.43,126.65,4
12697216.48,2594550.55,127.94,4
12697224.27,2594569.35,127.29,4
12697236.73,2594532.98,126.87,4
12697218.49,2594534.63,126.96,4
12697224.06,2594553.99,127.57,4
12697239.44,2594556.16,126.75,4
12697220.55,2594555.11,127.46,4
12697227.86,2594568.44,131.63,4
12697236.38,2594532.19,129.5,4
12697234.29,2594576.69,131.23,4
12697212.55,2594555.5,131.77,4
12697210.74,2594577.93,127.89,4
12697242.0,2594570.56,131.65,4
12697245.12,2594541.58,126.66,4
12697229.73,2594556.14,127.95,4
12697226.3,2594538.98,133.29,4
12697234.43,2594556.28,129.13,4
12697224.85,2594551.44,127.58,4
12697222.73,2594574.62,131.03,4
12697226.67,2594537.49,133.45,4
12697220.67,2594550.25,131.91,4
12697222.1,2594573.14,128.17,4
12697208.62,2594562.43,78.38,4
12697225.33,2594570.99,127.57,4
12697220.8,2594574.82,126.95,4
12697215.69,2594547.59,127.79,4
12697220.6,2594576.48,126.83,4
12697210.09,2594555.03,131.92,4
12697223.38,2594552.82,127.41,4
12697227.97,2594536.7,133.11,4
12697217.32,2594576.4,131.13,4
12697217.36,2594541.05,127.75,4
12697235.58,2594549.68,130.53,4
12697225.92,2594584.01,128.03,4
12697228.99,2594545.51,130.94,4
12697237.66,2594547.11,130.98,4
12697223.35,2594548.17,131.09,4
12697215.93,2594551.28,127.98,4
12697221.93,2594574.07,128.13,4
12697232.68,2594541.72,127.8,4
12697209.99,2594579.76,129.79,4
12697211.55,2594567.16,127.72,4
12697219.88,2594546.76,130.91,4
12697228.97,2594545.51,130.96,4
12697227.81,2594546.32,131.05,4
12697218.58,2594544.2,127.99,4
12697211.18,2594568.2,127.7,4
12697209.37,2594556.27,81.15,4
12697220.63,2594550.27,131.99,4
12697215.92,2594575.81,132.01,4
12697211.42,2594577.67,127.8,4
12697221.53,2594545.31,131.99,4
12697213.75,2594566.03,127.81,4
12697227.81,2594539.03,133.45,4
12697225.54,2594550.61,127.81,4
12697227.11,2594569.33,127.62,4
12697217.74,2594527.37,128.71,4
12697229.38,2594541.13,127.82,4
12697225.33,2594571.0,127.53,4
12697223.23,2594531.53,126.75,4
12697208.01,2594563.78,131.86,4
12697223.06,2594573.79,130.99,4
12697225.17,2594551.49,127.6,4
12697213.92,2594574.8,131.09,4
12697219.15,2594568.85,128.27,4
12697216.81,2594570.88,132.04,4
12697222.47,2594528.14,129.39,4
12697218.19,2594577.68,127.79,4
12697211.2,2594572.26,127.56,4
12697221.36,2594535.97,126.64,4
12697219.15,2594560.31,131.52,4
12697223.71,2594536.96,126.75,4
12697220.89,2594538.55,126.65,4
12697219.76,2594529.07,129.2,4
12697220.9,2594551.37,130.92,4
12697222.44,2594582.11,128.43,4
12697219.89,2594567.67,127.85,4
12697230.02,2594532.59,133.19,4
12697227.72,2594532.23,133.33,4
12697224.01,2594528.57,127.6,4
12697228.65,2594532.45,133.42,4
12697212.89,2594566.25,127.85,4
12697231.35,2594551.6,128.08,4
12697228.83,2594549.19,131.96,4
12697221.03,2594567.63,127.79,4
12697232.45,2594533.48,127.85,4
12697234.41,2594581.97,127.81,4
12697236.22,2594547.77,130.82,4
12697231.92,2594554.52,127.64,4
12697221.05,2594554.77,127.83,4
12697229.17,2594571.71,127.77,4
12697231.65,2594575.3,131.02,4
12697239.76,2594555.94,127.05,4
12697228.01,2594574.64,127.79,4
12697226.12,2594581.21,128.2,4
12697208.64,2594577.24,127.96,4
12697243.62,2594535.36,126.62,4
12697231.36,2594551.89,126.83,4
12697224.84,2594579.07,130.91,4
12697238.73,2594557.95,127.6,4
12697231.81,2594536.54,127.87,4
12697234.73,2594556.95,129.47,4
12697240.1,2594553.85,127.01,4
12697227.41,2594535.46,132.91,4
12697226.11,2594555.04,127.26,4
12697232.89,2594538.37,128.35,4
12697228.83,2594569.33,127.86,4
12697226.48,2594568.44,128.74,4
12697239.2,2594535.15,133.08,4
12697209.27,2594577.46,126.93,4
12697242.68,2594538.7,126.61,4
12697232.6,2594554.02,127.2,4
12697221.56,2594570.05,127.5,4
12697231.15,2594549.85,130.98,4
12697233.18,2594570.08,129.91,4
12697238.07,2594538.84,133.13,4
12697208.84,2594578.34,126.55,4
12697227.84,2594571.32,127.81,4
12697231.31,2594576.18,130.95,4
12697216.17,2594577.01,130.98,4
12697226.96,2594580.75,127.82,4
12697218.68,2594573.55,128.1,4
12697224.0,2594544.95,128.1,4
12697216.33,2594573.29,131.92,4
12697243.76,2594572.46,131.88,4
12697222.29,2594552.59,128.04,4
12697238.58,2594548.63,131.13,4
12697224.41,2594538.31,126.69,4
12697228.8,2594534.49,132.95,4
12697239.41,2594543.53,127.96,4
12697210.58,2594569.44,127.64,4
12697238.65,2594552.37,130.85,4
12697216.97,2594559.82,131.52,4
12697218.96,2594570.59,130.5,4
12697234.26,2594563.74,131.46,4
12697224.24,2594555.38,127.66,4
12697239.81,2594558.36,127.55,4
12697210.15,2594563.1,131.6,4
12697242.76,2594551.03,127.76,4
12697236.91,2594539.23,132.91,4
12697211.52,2594567.18,127.72,4
12697217.28,2594530.28,127.96,4
12697238.0,2594547.96,131.94,4
12697207.82,2594580.99,128.12,4
12697220.72,2594529.12,127.14,4
12697210.52,2594554.71,131.85,4
12697235.88,2594551.52,130.76,4
12697218.89,2594572.48,128.14,4
12697233.84,2594553.88,127.67,4
12697234.18,2594541.48,127.66,4
12697217.03,2594531.07,128.14,4
12697207.87,2594580.96,80.99,4
12697235.03,2594575.95,131.09,4
12697226.58,2594537.33,133.15,4
12697232.87,2594579.8,131.17,4
12697234.17,2594585.98,128.1,4
12697233.42,2594580.65,130.88,4
12697232.95,2594584.73,128.88,4
12697237.7,2594580.99,128.05,4
12697228.86,2594582.29,128.42,4
12697220.31,2594580.61,128.29,4
12697232.27,2594579.04,131.99,4
12697236.92,2594583.81,127.43,4
12697221.79,2594581.0,128.99,4
12697219.62,2594580.0,128.39,4
12697228.71,2594584.26,79.2,4
12697219.06,2594582.1,127.2,4
12697217.97,2594581.88,127.39,4
12697222.92,2594580.04,127.88,4
12697217.88,2594578.14,126.83,4
12697218.83,2594578.31,126.84,4
12697216.08,2594576.95,131.03,4
12697221.85,2594578.58,129.27,4
12697214.38,2594570.65,131.0,4
12697219.59,2594582.02,127.76,4
12697216.93,2594527.18,78.3,4
12697224.7,2594553.71,127.47,4
12697223.38,2594544.46,128.42,4
12697220.93,2594546.77,131.19,4
12697216.57,2594572.32,131.55,4
12697218.71,2594542.04,127.76,4
12697233.41,2594580.67,130.94,4
12697240.21,2594553.28,128.06,4
12697228.88,2594573.64,126.81,4
12697220.65,2594549.21,131.35,4
12697221.55,2594571.4,127.52,4
12697245.81,2594567.26,131.92,4
12697217.04,2594569.54,128.99,4
12697208.05,2594563.74,131.9,4
12697222.77,2594549.38,130.37,4
12697218.4,2594572.54,130.33,4
12697231.91,2594548.35,130.2,4
12697210.12,2594569.14,128.17,4
12697217.71,2594556.22,127.41,4
12697210.09,2594566.11,131.92,4
12697218.77,2594569.99,128.6,4
12697224.47,2594555.23,127.35,4
12697224.03,2594556.87,127.7,4
12697228.97,2594534.45,133.13,4
12697220.88,2594529.09,129.15,4
12697219.89,2594564.64,130.86,4
12697239.36,2594545.49,127.69,4
12697230.86,2594543.87,127.79,4
12697217.2,2594575.58,131.05,4
12697220.65,2594550.26,131.99,4
12697230.47,2594574.0,126.75,4
12697240.62,2594539.44,132.07,4
12697240.08,2594552.64,129.9,4
12697233.11,2594555.18,127.4,4
12697240.89,2594538.06,132.1,4
12697216.04,2594553.27,127.86,4
12697232.66,2594573.07,127.6,4
12697241.69,2594561.08,131.55,4
12697222.2,2594572.44,127.32,4
12697219.23,2594570.74,128.13,4
12697225.26,2594530.67,128.38,4
12697233.12,2594559.97,126.98,4
12697240.42,2594535.38,133.08,4
12697235.84,2594551.57,130.85,4
12697240.52,2594576.17,128.1,4
12697230.97,2594532.48,127.98,4
12697241.06,2594548.44,128.01,4
12697210.76,2594556.04,127.3,4
12697240.43,2594534.4,127.04,4
12697227.41,2594557.13,128.14,4
12697240.57,2594551.22,128.01,4
12697237.19,2594559.7,128.64,4
12697216.22,2594570.16,131.41,4
12697240.31,2594548.82,130.89,4
12697237.61,2594533.93,126.78,4
12697228.0,2594538.61,133.37,4
12697229.26,2594543.35,127.98,4
12697214.42,2594553.84,127.77,4
12697241.46,2594547.69,130.37,4
12697232.86,2594546.09,130.38,4
12697222.53,2594528.2,128.35,4
12697241.4,2594547.16,128.13,4
12697218.7,2594543.38,127.54,4
12697242.06,2594539.89,126.75,4
12697218.22,2594571.56,130.88,4
12697241.15,2594535.99,128.47,4
12697240.46,2594540.22,128.51,4
12697237.98,2594557.97,128.4,4
12697222.61,2594548.38,130.92,4
12697208.67,2594562.76,131.7,4
12697242.37,2594538.65,126.87,4
12697222.09,2594544.59,130.95,4
12697226.24,2594538.36,133.13,4
12697240.5,2594551.02,130.5,4
12697215.83,2594555.68,127.07,4
12697233.6,2594532.37,127.34,4
12697224.33,2594528.72,127.85,4
12697212.06,2594554.76,130.93,4
12697234.54,2594562.96,131.62,4
12697243.01,2594561.25,131.62,4
12697236.91,2594560.7,127.44,4
12697218.04,2594556.3,126.58,4
12697237.71,2594538.07,132.77,4
12697220.92,2594528.26,129.46,4
12697229.96,2594549.24,131.18,4
12697231.33,2594551.58,128.03,4
12697222.21,2594551.49,130.98,4
12697222.13,2594552.64,127.85,4
12697245.45,2594537.93,126.67,4
12697240.25,2594554.08,126.82,4
12697240.7,2594575.13,128.1,4
12697231.11,2594532.66,131.14,4
12697242.27,2594535.3,127.24,4
12697230.52,2594553.3,127.55,4
12697220.44,2594556.58,131.78,4
12697230.07,2594533.55,133.17,4
12697227.5,2594558.02,128.15,4
12697236.46,2594575.92,128.12,4
12697217.02,2594530.25,128.12,4
12697242.51,2594557.07,127.76,4
12697230.18,2594541.93,127.91,4
12697240.82,2594551.29,126.96,4
12697244.91,2594547.61,127.74,4
12697224.31,2594557.65,131.6,4
12697239.0,2594550.24,130.89,4
12697221.97,2594531.55,126.57,4
12697239.73,2594578.57,128.06,4
12697222.3,2594542.67,128.12,4
12697241.7,2594543.64,128.18,4
12697238.16,2594546.43,128.18,4
12697227.43,2594533.22,133.26,4
12697233.2,2594543.41,128.01,4
12697226.87,2594555.68,127.48,4
12697222.94,2594545.93,130.83,4
12697229.09,2594532.11,127.92,4
12697236.16,2594546.22,128.01,4
12697219.18,2594539.96,126.68,4
12697230.14,2594540.89,127.14,4
12697235.34,2594532.28,126.9,4
12697226.51,2594537.37,133.11,4
12697242.39,2594543.93,127.67,4
12697239.84,2594556.26,126.85,4
12697239.75,2594534.13,127.44,4
12697229.69,2594544.15,128.51,4
12697240.5,2594533.7,126.59,4
12697218.19,2594550.05,131.09,4
12697224.91,2594529.22,127.26,4
12697230.98,2594534.12,128.83,4
12697230.83,2594544.59,127.24,4
12697239.6,2594536.53,132.94,4
12697229.91,2594540.01,127.78,4
12697222.7,2594544.12,130.73,4
12697227.68,2594531.95,127.56,4
12697231.48,2594537.15,128.07,4
12697218.46,2594538.27,126.53,4
12697232.97,2594532.81,127.96,4
12697223.63,2594544.71,130.35,4
12697235.4,2594532.63,129.22,4
12697242.42,2594537.44,127.01,4
12697226.89,2594531.69,127.91,4
12697241.02,2594550.73,127.15,4
12697228.89,2594537.8,133.21,4
12697208.81,2594564.88,131.81,4
12697209.3,2594574.49,78.95,4
12697213.69,2594569.99,127.76,4
12697222.44,2594552.58,128.05,4
12697239.73,2594542.79,127.19,4
12697217.63,2594547.08,129.39,4
12697217.2,2594549.61,129.32,4
12697215.25,2594574.78,131.33,4
12697218.14,2594544.67,129.3,4
12697219.16,2594555.29,127.94,4
12697225.93,2594536.25,127.68,4
12697223.55,2594540.09,126.66,4
12697220.63,2594544.09,131.32,4
12697214.05,2594567.9,127.32,4
12697219.17,2594579.11,127.81,4
12697208.04,2594563.71,131.91,4
12697219.81,2594581.55,127.73,4
12697222.68,2594528.44,129.33,4
12697208.52,2594577.62,128.0,4
12697220.59,2594543.14,128.01,4
12697211.53,2594581.3,130.06,4
12697217.9,2594569.43,128.21,4
12697229.85,2594530.17,127.55,4
12697224.56,2594554.59,127.64,4
12697230.16,2594532.14,127.83,4
12697218.3,2594554.34,128.01,4
12697214.33,2594553.87,127.74,4
12697220.21,2594530.18,127.16,4
12697209.68,2594570.05,124.93,4
12697222.35,2594541.45,128.32,4
12697220.66,2594539.12,126.58,4
12697219.03,2594535.53,126.54,4
12697220.78,2594569.0,127.0,4
12697215.31,2594580.04,128.58,4
12697229.55,2594531.4,127.77,4
12697222.16,2594542.67,128.4,4
12697213.65,2594569.59,130.65,4
12697222.4,2594556.72,127.6,4
12697224.11,2594539.57,127.31,4
12697222.87,2594555.63,127.03,4
12697218.1,2594547.83,130.26,4
12697213.17,2594575.13,130.44,4
12697218.4,2594545.37,130.44,4
12697214.45,2594570.75,130.85,4
12697217.15,2594541.89,127.79,4
12697213.83,2594571.02,130.32,4
12697218.11,2594540.45,126.54,4
12697217.62,2594550.3,130.31,4
12697213.98,2594573.22,130.83,4
12697218.72,2594536.26,126.53,4
12697229.27,2594543.67,128.04,4
12697240.42,2594554.04,126.97,4
12697232.62,2594541.72,127.9,4
12697243.16,2594543.63,127.75,4
12697245.33,2594543.08,129.35,4
12697229.26,2594541.11,128.17,4
12697225.92,2594576.41,131.08,4
12697241.22,2594560.97,131.68,4
12697225.26,2594530.81,128.49,4
12697229.29,2594546.39,132.08,4
12697214.36,2594572.54,130.94,4
12697233.07,2594557.4,129.47,4
12697232.8,2594579.82,131.25,4
12697231.67,2594555.53,127.09,4
12697223.14,2594531.34,126.9,4
12697226.56,2594532.44,127.99,4
12697226.04,2594561.82,131.63,4
12697232.68,2594573.06,127.6,4
12697229.11,2594571.69,127.87,4
12697240.39,2594557.43,127.41,4
12697225.1,2594534.2,126.8,4
12697233.79,2594540.99,128.24,4
12697221.88,2594581.19,128.96,4
12697242.87,2594547.33,128.1,4
12697238.07,2594572.57,127.3,4
12697235.02,2594572.11,127.22,4
12697227.77,2594562.02,131.65,4
12697229.19,2594536.86,133.15,4
12697210.75,2594554.55,82.73,4
12697229.18,2594570.61,127.43,4
12697237.85,2594584.53,127.49,4
12697208.19,2594579.33,82.87,4
12697229.54,2594557.99,128.39,4
12697209.86,2594580.04,129.8,4
12697236.99,2594575.23,128.32,4
12697220.47,2594547.34,131.45,4
12697218.14,2594543.98,130.89,4
12697238.78,2594547.37,131.4,4
12697220.05,2594543.32,127.4,4
12697232.5,2594555.5,128.1,4
12697210.68,2594577.87,128.17,4
12697216.14,2594553.54,128.24,4
12697226.14,2594556.8,127.01,4
12697227.14,2594545.19,130.44,4
12697235.98,2594546.83,130.42,4
12697231.6,2594585.47,127.85,4
12697233.22,2594558.96,126.81,4
12697225.92,2594529.73,127.78,4
12697239.91,2594566.69,131.54,4
12697225.08,2594540.63,127.82,4
12697230.5,2594574.85,128.11,4
12697227.85,2594571.44,127.66,4
12697242.57,2594532.5,127.75,4
12697226.83,2594570.67,127.69,4
12697223.25,2594571.37,127.61,4
12697233.72,2594553.84,127.65,4
12697227.49,2594580.81,127.88,4
12697225.89,2594554.75,127.38,4
12697228.29,2594572.91,127.83,4
12697238.67,2594533.41,127.48,4
12697215.09,2594550.92,127.8,4
12697227.98,2594556.99,127.6,4
12697223.26,2594546.17,130.89,4
12697227.87,2594531.35,127.95,4
12697224.5,2594573.86,131.81,4
12697230.68,2594544.4,128.57,4
12697232.32,2594574.53,126.82,4
12697226.51,2594581.95,128.37,4
12697238.09,2594539.5,133.09,4
12697225.01,2594552.64,127.46,4
12697230.32,2594575.56,128.16,4
12697216.49,2594550.65,128.0,4
12697244.96,2594570.24,131.76,4
12697223.63,2594583.59,128.07,4
12697213.4,2594575.61,131.1,4
12697240.2,2594564.93,131.58,4
12697231.02,2594577.89,131.22,4
12697241.03,2594566.06,131.59,4
12697241.67,2594569.46,131.67,4
12697245.36,2594570.99,79.19,4
12697246.31,2594564.6,79.23,4
12697228.44,2594545.22,131.18,4
12697221.6,2594571.5,127.66,4
12697239.7,2594543.01,127.92,4
12697224.13,2594550.3,128.04,4
12697216.65,2594572.47,131.55,4
12697219.36,2594570.05,128.16,4
12697223.7,2594570.06,127.56,4
12697242.65,2594546.99,128.6,4
12697223.28,2594582.52,128.09,4
12697222.27,2594541.65,127.76,4
12697238.82,2594556.36,127.03,4
12697231.95,2594548.37,130.25,4
12697219.28,2594571.39,129.73,4
12697232.76,2594573.1,127.62,4
12697234.55,2594584.41,129.09,4
12697233.92,2594543.84,127.97,4
12697240.87,2594539.55,132.36,4
12697235.65,2594574.15,127.9,4
12697237.33,2594583.44,127.74,4
12697230.74,2594543.87,127.74,4
12697218.69,2594571.49,130.84,4
12697240.84,2594550.04,130.59,4
12697235.78,2594578.86,128.01,4
12697232.27,2594554.47,127.7,4
12697240.91,2594538.05,132.13,4
12697240.73,2594548.7,130.74,4
12697208.34,2594578.99,129.49,4
12697234.38,2594542.64,128.13,4
12697225.67,2594550.6,127.97,4
12697220.85,2594550.33,132.17,4
12697221.3,2594547.86,132.19,4
12697246.06,2594566.31,104.6,4
12697218.78,2594541.05,127.99,4
12697220.38,2594580.7,128.56,4
12697231.74,2594546.25,131.27,4
12697226.76,2594582.36,127.71,4
12697239.76,2594544.72,128.08,4
12697214.08,2594558.93,131.7,4
12697238.12,2594584.88,127.8,4
12697232.69,2594546.13,130.59,4
12697224.24,2594556.59,128.0,4
12697228.2,2594584.42,126.81,4
12697233.98,2594583.53,129.51,4
12697220.95,2594568.14,128.04,4
12697225.51,2594556.83,127.47,4
12697229.88,2594540.78,126.99,4
12697223.07,2594555.82,129.03,4
12697228.67,2594581.09,128.0,4
12697230.84,2594542.89,127.33,4
12697222.87,2594549.72,130.61,4
12697221.59,2594566.81,131.73,4
12697225.4,2594578.8,130.54,4
12697239.25,2594547.09,131.16,4
12697219.01,2594555.23,127.58,4
12697245.58,2594566.57,131.67,4
12697219.74,2594581.53,127.6,4
12697219.98,2594578.88,126.73,4
12697235.55,2594555.18,127.18,4
12697236.96,2594574.48,127.85,4
12697228.69,2594582.27,128.22,4
12697239.47,2594536.39,132.72,4
12697231.2,2594572.75,127.36,4
12697222.19,2594571.73,127.15,4
12697240.37,2594535.35,133.02,4
12697222.82,2594550.48,127.88,4
12697240.09,2594544.83,126.73,4
12697228.74,2594538.48,132.7,4
12697243.52,2594535.33,126.47,4
12697217.56,2594528.6,126.89,4
12697232.97,2594556.18,128.51,4
12697229.65,2594542.78,128.09,4
12697235.29,2594581.18,128.33,4
12697222.32,2594554.7,128.04,4
12697230.24,2594537.69,131.0,4
12697241.69,2594544.86,127.2,4
12697247.01,2594535.14,128.16,4
12697222.82,2594556.51,128.78,4
12697226.72,2594555.63,127.27,4
12697240.05,2594558.29,127.65,4
12697238.34,2594573.06,127.62,4
12697240.56,2594539.48,127.22,4
12697235.85,2594581.93,128.09,4
12697234.0,2594558.3,129.13,4
12697209.76,2594554.58,132.0,4
12697234.68,2594585.41,127.59,4
12697234.97,2594579.81,130.71,4
12697240.31,2594553.92,126.87,4
12697245.28,2594543.06,129.29,4
12697222.5,2594550.8,130.77,4
12697218.34,2594554.36,127.71,4
12697223.18,2594542.5,127.82,4
12697225.76,2594581.2,127.69,4
12697217.22,2594578.77,127.69,4
12697230.26,2594572.58,127.54,4
12697230.19,2594533.51,133.45,4
12697222.75,2594544.93,131.03,4
12697242.39,2594533.38,127.49,4
12697223.92,2594567.85,124.86,4
12697233.75,2594552.31,126.76,4
12697211.1,2594566.45,131.92,4
12697207.81,2594564.93,131.95,4
12697224.79,2594553.35,127.4,4
12697211.46,2594565.52,131.29,4
12697235.3,2594579.38,127.97,4
12697240.6,2594551.01,127.99,4
12697234.51,2594556.19,128.81,4
12697228.05,2594553.17,127.65,4
12697216.46,2594570.14,131.42,4
12697240.6,2594550.36,130.37,4
12697223.23,2594547.14,130.56,4
12697227.46,2594535.49,133.0,4
12697243.34,2594546.25,127.93,4
12697233.95,2594583.5,127.72,4
12697218.57,2594572.8,130.67,4
12697237.99,2594538.6,132.9,4
12697232.05,2594579.67,131.19,4
12697231.32,2594539.78,127.2,4
12697222.0,2594542.41,128.01,4
12697239.27,2594539.72,133.06,4
12697222.45,2594551.54,130.43,4
12697221.51,2594528.48,127.32,4
12697238.08,2594539.5,133.11,4
12697232.28,2594552.88,127.51,4
12697218.86,2594570.1,130.06,4
12697208.37,2594578.78,127.65,4
12697217.06,2594559.36,131.5,4
12697220.13,2594542.67,128.65,4
12697220.91,2594528.29,129.26,4
12697215.21,2594552.3,127.78,4
12697211.13,2594566.61,127.76,4
12697218.22,2594538.72,126.5,4
12697218.44,2594540.66,127.67,4
12697216.02,2594554.31,127.74,4
12697220.33,2594560.15,131.33,4
12697219.07,2594533.72,126.53,4
12697216.01,2594559.15,131.52,4
12697215.03,2594581.19,128.6,4
12697219.09,2594558.5,131.25,4
12697216.69,2594538.01,79.06,4
12697213.51,2594569.98,127.19,4
12697217.74,2594551.12,129.49,4
12697221.05,2594541.46,127.85,4
12697211.83,2594573.78,127.45,4
12697212.31,2594576.83,128.17,4
12697217.25,2594544.04,128.01,4
12697214.08,2594568.5,128.23,4
12697215.38,2594552.04,127.97,4
12697212.55,2594570.8,126.68,4
12697210.79,2594579.99,130.03,4
12697211.06,2594555.46,131.71,4
12697220.55,2594539.18,126.71,4
12697209.8,2594568.66,125.1,4
12697218.39,2594543.34,128.63,4
12697215.82,2594555.97,131.49,4
12697212.35,2594577.8,128.11,4
12697240.49,2594542.18,126.78,4
12697240.92,2594571.95,131.91,4
12697208.06,2594563.72,131.86,4
12697231.37,2594547.88,130.79,4
12697214.77,2594568.92,128.99,4
12697220.98,2594567.64,127.84,4
12697218.25,2594550.65,130.72,4
12697234.04,2594553.18,127.57,4
12697236.23,2594547.79,130.9,4
12697245.89,2594567.25,131.82,4
12697232.84,2594552.17,127.73,4
12697234.49,2594570.14,129.83,4
12697235.62,2594551.94,129.16,4
12697213.53,2594570.34,129.55,4
12697225.07,2594540.64,127.78,4
12697231.5,2594572.5,127.53,4
12697235.74,2594550.54,130.87,4
12697213.19,2594567.73,126.57,4
12697239.62,2594568.13,131.53,4
12697211.44,2594577.64,127.77,4
12697212.98,2594566.37,131.39,4
12697228.08,2594571.52,127.86,4
12697213.93,2594568.56,127.05,4
12697229.22,2594571.7,127.75,4
12697231.15,2594539.81,127.64,4
12697223.18,2594554.95,127.73,4
12697229.57,2594556.42,128.06,4
12697232.18,2594583.84,127.65,4
12697218.66,2594540.74,127.91,4
12697236.69,2594582.69,128.14,4
12697214.72,2594567.3,128.6,4
12697234.32,2594541.76,128.42,4
12697223.51,2594553.49,127.37,4
12697210.76,2594562.02,131.64,4
12697220.82,2594551.31,130.93,4
12697216.44,2594573.83,131.18,4
12697220.15,2594579.49,127.96,4
12697227.74,2594580.89,127.86,4
12697212.77,2594565.55,131.33,4
12697222.64,2594567.98,127.86,4
12697231.29,2594576.16,131.03,4
12697235.22,2594555.54,128.66,4
12697220.28,2594567.54,127.51,4
12697219.15,2594545.01,130.95,4
12697218.23,2594549.95,130.96,4
12697221.13,2594548.13,131.17,4
12697218.69,2594547.48,130.94,4
12697234.71,2594581.26,128.11,4
12697234.03,2594576.73,131.12,4
12697235.72,2594546.91,128.06,4
12697239.76,2594555.95,127.1,4
12697237.88,2594581.59,127.58,4
12697234.07,2594582.72,128.34,4
12697231.76,2594575.24,130.71,4
12697241.12,2594558.34,127.42,4
12697241.23,2594572.21,128.1,4
12697241.87,2594554.33,127.35,4
12697210.72,2594578.33,126.62,4
12697211.52,2594580.85,129.67,4
12697523.69,2594576.04,83.33,11
12697535.46,2594578.47,95.72,11
12697534.34,2594578.61,98.43,11
12697526.79,2594577.49,98.37,11
12697533.36,2594578.39,94.95,11
12697530.26,2594577.9,98.31,11
12697538.6,2594578.49,83.84,11
12697528.44,2594581.72,191.35,11
12697534.23,2594587.27,190.09,11
12697526.41,2594587.22,190.07,11
12697539.37,2594580.88,195.64,11
12697526.68,2594590.58,190.09,11
12697518.33,2594591.34,194.51,11
12697534.71,2594580.79,190.15,11
12697524.65,2594576.06,139.45,11
12697527.62,2594580.39,190.09,11
12697520.81,2594590.94,190.05,11
12697529.15,2594586.09,196.03,11
12697529.33,2594582.1,191.45,11
12697524.23,2594580.3,190.08,11
12697517.82,2594595.73,194.52,11
12697516.57,2594600.01,194.52,11
12697517.72,2594593.98,194.51,11
12697522.07,2594576.24,98.4,11
12697521.08,2594579.29,98.21,11
12697530.61,2594613.79,196.31,11
12697531.79,2594604.3,193.59,11
12697517.37,2594611.05,190.05,11
12697524.21,2594599.56,190.15,11
12697519.56,2594602.11,190.1,11
12697521.07,2594599.0,190.03,11
12697530.03,2594596.66,190.06,11
12697514.68,2594630.1,190.01,11
12697518.18,2594630.68,190.18,11
12697521.22,2594627.57,195.95,11
12697522.04,2594622.89,194.53,11
12697527.54,2594602.16,190.07,11
12697517.71,2594635.03,190.03,11
12697530.37,2594588.23,190.12,11
12697515.42,2594607.45,194.52,11
12697532.23,2594612.77,197.07,11
12697515.3,2594624.01,190.01,11
12697514.17,2594622.21,190.11,11
12697514.28,2594613.24,194.5,11
12697532.55,2594604.45,193.62,11
12697514.52,2594623.67,190.29,11
12697514.86,2594609.72,194.51,11
12697519.19,2594614.02,190.08,11
12697514.89,2594607.96,194.53,11
12697519.15,2594603.44,189.86,11
12697516.68,2594610.92,190.07,11
12697515.99,2594603.28,194.52,11
12697520.62,2594635.77,189.94,11
12697517.8,2594601.64,190.09,11
12697517.22,2594595.75,194.52,11
12697522.5,2594614.35,190.21,11
12697526.39,2594602.33,190.25,11
12697529.48,2594611.66,195.98,11
12697534.94,2594580.29,190.13,11
12697522.07,2594633.93,190.02,11
12697522.37,2594593.01,190.05,11
12697514.32,2594633.58,190.04,11
12697515.37,2594608.53,194.51,11
12697516.35,2594626.43,190.31,11
12697521.42,2594591.42,190.05,11
12697514.89,2594623.01,190.09,11
12697520.96,2594601.01,190.91,11
12697531.81,2594623.83,190.15,11
12697522.25,2594630.81,190.2,11
12697519.87,2594612.7,190.08,11
12697518.44,2594604.62,190.04,11
