-686.35998535,-382.45001221,22.13999939,11.000000
-715.79998779,-370.10998535,26.86000061,11.000000
-725.41998291,-380.70999146,28.32999992,11.000000
-680.04998779,-370.79000854,23.97999954,11.000000
-703.89001465,-376.73001099,21.34000015,11.000000
-707.61999512,-374.98999023,20.69000053,11.000000
-715.66998291,-370.76998901,23.19000053,11.000000
-681.42999268,-366.67001343,28.77000046,11.000000
-684.45001221,-363.97000122,30.28000069,11.000000
-684.44000244,-368.97000122,30.67000008,11.000000
-686.85998535,-379.89001465,28.29999924,11.000000
-686.96997070,-362.07000732,26.87999916,11.000000
-686.29998779,-357.83999634,28.54999924,11.000000
-681.11999512,-375.20999146,28.17000008,11.000000
-731.96002197,-381.85000610,27.65999985,11.000000
-703.09997559,-375.42001343,28.44000053,11.000000
-706.96002197,-376.54000854,29.29999924,11.000000
-714.09997559,-376.63000488,29.93000031,11.000000
-727.54998779,-371.36999512,30.03000069,11.000000
-717.13000488,-371.07998657,30.59000015,11.000000
-714.44000244,-373.20999146,30.01000023,11.000000
-697.41998291,-383.22000122,28.29999924,11.000000
-684.25000000,-372.07000732,30.55999947,11.000000
-709.04998779,-379.13000488,31.48999977,11.000000
-708.66998291,-383.69000244,31.45000076,11.000000
-710.72998047,-381.60000610,33.50000000,11.000000
-713.82000732,-379.86999512,33.59000015,11.000000
-739.59002686,-380.13000488,32.09000015,11.000000
-717.27001953,-375.51000977,32.90000153,11.000000
-739.89001465,-382.98999023,29.75000000,11.000000
-692.71997070,-366.01998901,24.37000084,11.000000
-694.25000000,-372.76000977,22.20999908,11.000000
-693.97998047,-384.85998535,26.57999992,11.000000
-713.15002441,-386.41000366,29.51000023,11.000000
-696.39001465,-384.79998779,21.43000031,11.000000
-708.29998779,-385.54000854,24.45999908,11.000000
-701.97998047,-385.04998779,22.27000046,11.000000
-705.33001709,-385.45001221,31.23999977,11.000000
-707.47998047,-386.32000732,29.12999916,11.000000
-692.96002197,-384.57000732,22.78000069,11.000000
-714.84002686,-386.60000610,25.98999977,11.000000
-741.89001465,-387.89999390,28.29000092,11.000000
-705.04998779,-385.69000244,22.54000092,11.000000
-739.75000000,-387.94000244,25.52000046,11.000000
-736.84002686,-385.64999390,24.54000092,11.000000
-740.76000977,-391.30999756,22.29000092,11.000000
-737.82000732,-384.51998901,27.23999977,11.000000
-721.97998047,-340.33999634,20.72999954,11.000000
-718.64001465,-339.89999390,26.62000084,11.000000
-702.70001221,-340.04000854,26.81999969,11.000000
-700.39001465,-340.92001343,23.51000023,11.000000
-694.03997803,-340.08999634,24.63999939,11.000000
-715.86999512,-339.55999756,28.22999954,11.000000
-709.73999023,-342.67001343,31.85000038,11.000000
-716.98999023,-342.94000244,31.18000031,11.000000
-728.03002930,-340.92001343,28.52000046,11.000000
-717.15997314,-340.01000977,23.05999947,11.000000
-722.51000977,-340.20999146,28.34000015,11.000000
-690.00000000,-341.29000854,27.75000000,11.000000
-697.97998047,-341.58999634,26.77000046,11.000000
-714.73999023,-339.70999146,21.06999969,11.000000
-711.36999512,-339.48001099,23.23999977,11.000000
-706.50000000,-339.04000854,25.17000008,11.000000
-697.34002686,-340.98999023,22.85000038,11.000000
-750.09002686,-497.42999268,23.17000008,12.000000
-749.60998535,-496.54000854,27.32999992,12.000000
-754.28002930,-486.23999023,22.85000038,12.000000
-748.29998779,-502.91000366,26.54999924,12.000000
-753.78997803,-481.92999268,32.27000046,12.000000
-753.23999023,-485.11999512,32.34999847,12.000000
-752.15002441,-490.39001465,25.53000069,12.000000
-752.42999268,-487.77999878,30.87999916,12.000000
-752.57000732,-488.32998657,27.85000038,12.000000
-753.96002197,-480.30999756,26.87000084,12.000000
-749.51000977,-498.80999756,29.80999947,12.000000
-754.51000977,-478.32000732,32.54999924,12.000000
-795.55999756,-424.02999878,31.56999969,12.000000
-794.78002930,-428.20999146,31.11000061,12.000000
-770.90002441,-436.73001099,29.63999939,12.000000
-771.28002930,-439.67001343,27.80999947,12.000000
-774.40997314,-438.54998779,27.57999992,12.000000
-781.42999268,-447.70999146,23.35000038,12.000000
-778.76000977,-445.79000854,24.93000031,12.000000
-780.48999023,-451.61999512,23.87000084,12.000000
-779.08001709,-438.79998779,26.06999969,12.000000
-778.94000244,-433.33999634,28.11000061,12.000000
-776.17999268,-395.39999390,29.42000008,12.000000
-751.17999268,-493.26998901,27.45000076,12.000000
-771.63000488,-393.72000122,28.96999931,12.000000
-766.45001221,-393.42999268,27.01000023,12.000000
-753.96002197,-471.60998535,29.14999962,12.000000
-754.71002197,-469.33999634,32.97999954,12.000000
-754.45001221,-477.52999878,25.82999992,12.000000
-755.35998535,-473.86999512,31.90999985,12.000000
-757.41998291,-463.39001465,25.64999962,12.000000
-771.47998047,-464.73001099,27.78000069,12.000000
-754.45001221,-462.94000244,22.69000053,12.000000
-755.34002686,-467.55999756,26.28000069,12.000000
-752.71997070,-469.92001343,26.35000038,12.000000
-761.08001709,-466.76000977,30.17000008,12.000000
-760.61999512,-467.10998535,33.13000107,12.000000
-768.10998535,-463.88000488,30.07999992,12.000000
-766.44000244,-463.17001343,25.52000046,12.000000
-775.91998291,-460.98001099,25.32999992,12.000000
-780.57000732,-464.82000732,25.79999924,12.000000
-763.86999512,-467.19000244,28.48999977,12.000000
-765.14001465,-466.27999878,25.29000092,12.000000
-765.72998047,-465.75000000,32.34000015,12.000000
-756.96002197,-466.60998535,29.95999908,12.000000
-754.92999268,-469.26998901,36.31000137,12.000000
-754.90002441,-475.95001221,35.33000183,12.000000
-760.32000732,-466.17999268,24.46999931,12.000000
-761.47998047,-462.57998657,24.95999908,12.000000
-754.40997314,-474.82998657,27.54999924,12.000000
-754.57000732,-472.17999268,35.18000031,12.000000
-765.57000732,-464.41000366,28.57999992,12.000000
-754.46002197,-477.51998901,29.54000092,12.000000
-781.35998535,-461.76000977,25.40999985,12.000000
-769.84997559,-461.95001221,25.52000046,12.000000
-767.05999756,-457.60998535,24.47999954,12.000000
-763.60998535,-450.54000854,26.65999985,12.000000
-764.19000244,-455.32998657,24.86000061,12.000000
-754.90997314,-449.57998657,20.90999985,12.000000
-761.40002441,-456.48001099,24.10000038,12.000000
-756.35998535,-448.42001343,26.48999977,12.000000
-770.23999023,-454.23001099,25.38999939,12.000000
-756.36999512,-458.42999268,21.07999992,12.000000
-783.85998535,-457.23999023,25.34000015,12.000000
-779.51000977,-456.33999634,25.17000008,12.000000
-788.53997803,-458.30999756,23.86000061,12.000000
-776.71002197,-454.85000610,25.14999962,12.000000
-777.96997070,-449.55999756,25.31999969,12.000000
-769.40002441,-449.85000610,25.62999916,12.000000
-760.21002197,-451.73999023,25.56999969,12.000000
-762.08001709,-459.60998535,24.38999939,12.000000
-758.21002197,-455.92999268,24.93000031,12.000000
-755.79998779,-453.67001343,24.47999954,12.000000
-754.66998291,-459.89001465,25.90999985,12.000000
-757.61999512,-459.61999512,25.29999924,12.000000
-756.46002197,-454.64999390,21.29000092,12.000000
-785.28002930,-457.52999878,21.06999969,12.000000
-773.64001465,-457.73999023,25.35000038,12.000000
-775.46997070,-451.26000977,25.22999954,12.000000
-766.42999268,-453.04000854,25.42000008,12.000000
-782.78997803,-453.83999634,22.04999924,12.000000
-766.40002441,-448.39999390,25.56999969,12.000000
-787.96997070,-439.01000977,26.05999947,12.000000
-762.40997314,-432.10000610,31.77000046,12.000000
-755.98999023,-444.36999512,27.09000015,12.000000
-758.40002441,-439.89999390,27.68000031,12.000000
-758.48999023,-433.89001465,26.46999931,12.000000
-756.15997314,-444.67999268,21.71999931,12.000000
-769.67999268,-430.86999512,29.75000000,12.000000
-763.48999023,-440.82998657,27.20000076,12.000000
-785.63000488,-430.89999390,28.63999939,12.000000
-788.21002197,-438.67001343,29.22999954,12.000000
-763.54998779,-446.72000122,24.03000069,12.000000
-764.94000244,-443.92999268,24.37000084,12.000000
-788.58001709,-434.22000122,26.38999939,12.000000
-788.16998291,-437.82998657,23.20999908,12.000000
-756.91998291,-441.79000854,23.43000031,12.000000
-769.25000000,-445.88000488,24.95000076,12.000000
-757.71997070,-437.69000244,24.61000061,12.000000
-758.30999756,-435.20999146,29.40999985,12.000000
-775.01000977,-442.26998901,25.89999962,12.000000
-791.70001221,-433.23999023,29.65999985,12.000000
-782.50000000,-432.94000244,26.20999908,12.000000
-779.35998535,-430.50000000,29.53000069,12.000000
-765.89001465,-435.23999023,32.04999924,12.000000
-761.70001221,-435.44000244,30.31999969,12.000000
-775.84997559,-446.79998779,25.09000015,12.000000
-791.34002686,-439.26998901,26.00000000,12.000000
-778.16998291,-442.17001343,25.31999969,12.000000
-767.02001953,-440.01998901,27.40999985,12.000000
-772.61999512,-447.48999023,25.36000061,12.000000
-770.70001221,-443.25000000,25.69000053,12.000000
-768.08001709,-396.08999634,27.57999992,12.000000
-760.02001953,-444.76000977,26.04999924,12.000000
-758.91998291,-431.48999023,28.97999954,12.000000
-764.88000488,-437.38000488,30.05999947,12.000000
-788.91998291,-441.10998535,22.53000069,12.000000
-786.02001953,-435.60000610,21.67000008,12.000000
-785.52001953,-434.10000610,24.37000084,12.000000
-793.45001221,-436.60000610,28.54999924,12.000000
-781.30999756,-441.38000488,23.34000015,12.000000
-773.80999756,-430.45001221,30.09000015,12.000000
-774.66998291,-433.51998901,29.26000023,12.000000
-758.48999023,-433.51000977,22.46999931,12.000000
-775.71997070,-426.67001343,29.18000031,12.000000
-785.85998535,-422.32998657,29.07999992,12.000000
-792.19000244,-430.05999756,30.09000015,12.000000
-761.32000732,-426.48001099,29.11000061,12.000000
-764.19000244,-429.54998779,29.97999954,12.000000
-760.40997314,-422.89999390,28.68000031,12.000000
-760.29998779,-422.85998535,24.87999916,12.000000
-771.19000244,-425.30999756,28.23999977,12.000000
-772.61999512,-422.38000488,29.40999985,12.000000
-764.04998779,-419.77999878,28.35000038,12.000000
-763.67999268,-423.45999146,28.35000038,12.000000
-781.88000488,-421.07000732,29.90999985,12.000000
-782.36999512,-427.98999023,29.32999992,12.000000
-778.32000732,-423.57998657,30.04999924,12.000000
-760.10998535,-423.51000977,21.34000015,12.000000
-789.25000000,-427.23999023,30.43000031,12.000000
-768.94000244,-427.63000488,30.52000046,12.000000
-792.20001221,-425.26998901,31.28000069,12.000000
-785.13000488,-425.22000122,29.84000015,12.000000
-790.64001465,-421.89001465,29.82999992,12.000000
-794.83001709,-421.05999756,31.62000084,12.000000
-772.07000732,-418.80999756,28.43000031,12.000000
-768.85998535,-421.60998535,28.25000000,12.000000
-767.32000732,-426.07000732,28.44000053,12.000000
-777.08001709,-419.89001465,29.95000076,12.000000
-772.59002686,-397.30999756,27.71999931,12.000000
-787.25000000,-419.55999756,29.62000084,12.000000
-791.98999023,-415.25000000,28.87000084,12.000000
-766.84002686,-417.48999023,28.93000031,12.000000
-801.23999023,-415.97000122,30.79999924,12.000000
-784.02001953,-418.94000244,29.32999992,12.000000
-802.67999268,-412.80999756,30.12999916,12.000000
-768.19000244,-412.13000488,30.48999977,12.000000
-807.53002930,-412.86999512,28.25000000,12.000000
-796.64001465,-417.11999512,32.09000015,12.000000
-772.61999512,-414.55999756,29.32999992,12.000000
-799.09002686,-412.32998657,30.44000053,12.000000
-761.40997314,-417.17001343,22.10000038,12.000000
-762.09997559,-412.82998657,21.02000046,12.000000
-792.47998047,-418.70999146,30.65999985,12.000000
-786.83001709,-414.55999756,29.25000000,12.000000
-780.57000732,-418.39999390,28.47999954,12.000000
-770.69000244,-409.77999878,29.43000031,12.000000
-761.86999512,-416.60998535,28.67000008,12.000000
-782.26000977,-413.20001221,29.04000092,12.000000
-781.69000244,-416.61999512,26.32999992,12.000000
-792.66998291,-411.44000244,28.31999969,12.000000
-762.61999512,-412.89001465,28.80999947,12.000000
-762.80999756,-410.01998901,21.88999939,12.000000
-795.55999756,-414.11999512,31.17000008,12.000000
-789.55999756,-412.42999268,28.95000076,12.000000
-774.28002930,-411.17001343,30.23999977,12.000000
-777.21002197,-415.66000366,28.57999992,12.000000
-764.73999023,-415.39001465,29.60000038,12.000000
-780.21002197,-410.30999756,27.85000038,12.000000
-796.03997803,-411.32000732,29.76000023,12.000000
-785.03002930,-410.64001465,29.02000046,12.000000
-769.67999268,-415.01998901,29.93000031,12.000000
-769.01000977,-406.91000366,29.04999924,12.000000
-764.80999756,-400.16000366,27.31999969,12.000000
-770.91998291,-404.22000122,28.04999924,12.000000
-765.16998291,-405.23001099,28.63999939,12.000000
-779.72998047,-399.77999878,29.12999916,12.000000
-795.89001465,-408.10998535,28.73999977,12.000000
-766.14001465,-408.25000000,28.82999992,12.000000
-787.72998047,-406.29000854,30.39999962,12.000000
-775.92999268,-400.77999878,27.86000061,12.000000
-784.16998291,-406.11999512,29.26000023,12.000000
-773.48999023,-405.36999512,29.31999969,12.000000
-776.53002930,-406.38000488,29.54999924,12.000000
-769.04998779,-400.10000610,27.79999924,12.000000
-784.03002930,-401.22000122,29.00000000,12.000000
-764.92999268,-398.20001221,22.29999924,12.000000
-764.09997559,-404.52999878,25.56999969,12.000000
-762.89001465,-409.89001465,27.61000061,12.000000
-779.55999756,-403.98999023,29.07999992,12.000000
-786.82000732,-402.75000000,28.96999931,12.000000
-789.95001221,-408.95001221,28.93000031,12.000000
-791.04998779,-404.10998535,29.45999908,12.000000
-781.60998535,-407.52999878,28.53000069,12.000000
-763.25000000,-407.54998779,24.17000008,12.000000
-740.59997559,115.20999908,47.84000015,13.000000
-742.69000244,116.72000122,58.93999863,13.000000
-743.38000488,121.72000122,24.35000038,13.000000
-745.34997559,119.12000275,41.15000153,13.000000
-737.05999756,110.80000305,57.31000137,13.000000
-740.84997559,113.52999878,52.43999863,13.000000
-737.52001953,110.93000031,45.08000183,13.000000
-745.09002686,118.11000061,27.61000061,13.000000
-741.89001465,124.55000305,26.32999992,13.000000
-742.48999023,122.84999847,38.79999924,13.000000
-742.84997559,116.73999786,44.00999832,13.000000
-740.79998779,113.51000214,42.58000183,13.000000
-743.01000977,116.81999969,31.12999916,13.000000
-744.88000488,117.94999695,33.59999847,13.000000
-742.35998535,116.31999969,35.81000137,13.000000
-743.82000732,116.76999664,47.79999924,13.000000
-742.40002441,116.37000275,39.43999863,13.000000
-743.95001221,120.73000336,44.36999893,13.000000
-736.98999023,110.84999847,22.96999931,13.000000
-741.82000732,116.06999969,50.47999954,13.000000
-741.03997803,113.62999725,60.06000137,13.000000
-740.28997803,112.83000183,62.93999863,13.000000
-741.46002197,115.08999634,55.59999847,13.000000
-743.21997070,121.70999908,62.36999893,13.000000
-738.41998291,111.19999695,40.90999985,13.000000
-744.42999268,117.76000214,53.88000107,13.000000
-740.72998047,115.25000000,29.28000069,13.000000
-744.71002197,117.94999695,21.35000038,13.000000
-744.95001221,117.84999847,37.09999847,13.000000
-740.92999268,113.48999786,34.61000061,13.000000
-742.34002686,122.98000336,42.47000122,13.000000
-743.40997314,121.72000122,33.34999847,13.000000
-743.45001221,121.36000061,49.20000076,13.000000
-742.33001709,123.26000214,52.20999908,13.000000
-743.75000000,117.26000214,63.22999954,13.000000
-745.15997314,118.20999908,57.27000046,13.000000
-743.59997559,120.94999695,67.25000000,13.000000
-743.20001221,121.68000031,59.27000046,13.000000
-742.46002197,123.40000153,69.45999908,13.000000
-742.11999512,123.75000000,64.30999756,13.000000
-742.30999756,123.56999969,56.36999893,13.000000
-738.90002441,111.91999817,27.34000015,13.000000
-738.17999268,111.05999756,49.56000137,13.000000
-738.59002686,110.91000366,36.36000061,13.000000
-737.44000244,110.94000244,53.97000122,13.000000
-733.57000732,110.08999634,57.88000107,13.000000
-733.52001953,109.87000275,52.36999893,13.000000
-736.53002930,110.62999725,61.84999847,13.000000
-733.90002441,110.87999725,41.52000046,13.000000
-735.57000732,109.98000336,37.29999924,13.000000
-735.64001465,110.12000275,31.92000008,13.000000
-738.88000488,112.06999969,31.51000023,13.000000
-735.64001465,109.83000183,26.34000015,13.000000
-742.47998047,123.16000366,29.89999962,13.000000
-734.77001953,108.63999939,23.04000092,13.000000
-733.70001221,110.19999695,29.00000000,13.000000
-733.82000732,109.47000122,44.16999817,13.000000
-734.05999756,110.66000366,47.54999924,13.000000
-747.66998291,132.05999756,20.81999969,13.000000
-748.07000732,131.75000000,25.87999916,13.000000
-741.84002686,124.38999939,49.34000015,13.000000
-741.08001709,113.58000183,38.20000076,13.000000
-741.34002686,125.55000305,71.55000305,13.000000
-744.35998535,130.38999939,72.16999817,13.000000
-741.11999512,126.48999786,29.02000046,13.000000
-746.32000732,131.36000061,30.45999908,13.000000
-741.17999268,128.22000122,25.45999908,13.000000
-747.86999512,131.66999817,39.65999985,13.000000
-741.78997803,128.63999939,37.68999863,13.000000
-742.84997559,129.00999451,34.74000168,13.000000
-745.90997314,132.36999512,48.43000031,13.000000
-741.01000977,126.13999939,60.99000168,13.000000
-741.90002441,128.53999329,51.86999893,13.000000
-747.34002686,132.47000122,66.38999939,13.000000
-743.60998535,129.67999268,56.90000153,13.000000
-740.80999756,126.94999695,32.50999832,13.000000
-745.19000244,130.69000244,22.94000053,13.000000
-742.53997803,128.97999573,22.60000038,13.000000
-743.09002686,129.41000366,28.76000023,13.000000
-741.10998535,126.87000275,42.75999832,13.000000
-744.78997803,130.52000427,40.86999893,13.000000
-745.96002197,131.30000305,33.93000031,13.000000
-744.96997070,130.86000061,61.41999817,13.000000
-741.61999512,128.55000305,62.95000076,13.000000
-743.95001221,130.00999451,65.30999756,13.000000
-740.83001709,127.33000183,45.95000076,13.000000
-744.60998535,130.21000671,44.54999924,13.000000
-744.95001221,130.50000000,53.99000168,13.000000
-741.23999023,128.05000305,69.12999725,13.000000
-746.42999268,132.61999512,70.73999786,13.000000
-744.26000977,130.10000610,25.80999947,13.000000
-741.11999512,126.27999878,22.87999916,13.000000
-740.95001221,126.44000244,66.52999878,13.000000
-747.50000000,131.44000244,63.09999847,13.000000
-741.14001465,126.09999847,54.84999847,13.000000
-744.85998535,130.69999695,68.69999695,13.000000
-743.36999512,129.55999756,47.29000092,13.000000
-746.72998047,132.14999390,73.77999878,13.000000
-734.21997070,110.48000336,63.77999878,13.000000
-725.90002441,113.59999847,22.93000031,13.000000
-729.98999023,110.98000336,22.47999954,13.000000
-727.09997559,113.25000000,30.67000008,13.000000
-731.61999512,110.72000122,33.43999863,13.000000
-726.75000000,112.33999634,62.66999817,13.000000
-730.08001709,110.33999634,61.59999847,13.000000
-715.85998535,88.76000214,51.13999939,13.000000
-715.65002441,89.20999908,59.70999908,13.000000
-716.71002197,87.87999725,34.70000076,13.000000
-715.53002930,89.16000366,28.20999908,13.000000
-716.47998047,87.80000305,41.09999847,13.000000
-717.11999512,100.12999725,63.18999863,13.000000
-714.32000732,91.34999847,50.77999878,13.000000
-718.23999023,101.26999664,66.20999908,13.000000
-713.55999756,93.70999908,46.04999924,13.000000
-718.55999756,85.54000092,37.47999954,13.000000
-715.22998047,96.75000000,65.81999969,13.000000
-715.85998535,98.56999969,44.90000153,13.000000
-717.80999756,102.98000336,22.06999969,13.000000
-715.71997070,88.77999878,25.04000092,13.000000
-714.34997559,91.52999878,58.08000183,13.000000
-715.51000977,98.45999908,27.39999962,13.000000
-714.27001953,91.69999695,29.53000069,13.000000
-714.84997559,97.62999725,39.93000031,13.000000
-719.20001221,101.33000183,46.61999893,13.000000
-718.46997070,102.12000275,39.70000076,13.000000
-716.64001465,87.68000031,45.00000000,13.000000
-714.84002686,90.47000122,36.79000092,13.000000
-714.40997314,91.20999908,41.34999847,13.000000
-715.10998535,98.01999664,51.93000031,13.000000
-714.83001709,96.80999756,60.50999832,13.000000
-715.07000732,90.06999969,54.90999985,13.000000
-718.09997559,102.25000000,30.75000000,13.000000
-717.84002686,102.95999908,25.22999954,13.000000
-718.17999268,102.44999695,51.02999878,13.000000
-717.41998291,100.50000000,35.56999969,13.000000
-715.32000732,98.52999878,32.33000183,13.000000
-719.02001953,101.38999939,43.47999954,13.000000
-712.66998291,95.23999786,49.86999893,13.000000
-714.40002441,91.55999756,32.88000107,13.000000
-714.46997070,91.23000336,47.61000061,13.000000
-718.76000977,101.11000061,57.58000183,13.000000
-713.11999512,93.76999664,23.86000061,13.000000
-712.94000244,95.02999878,27.27000046,13.000000
-716.80999756,99.87000275,48.93999863,13.000000
-713.64001465,93.41999817,61.29000092,13.000000
-712.88000488,95.15000153,35.38000107,13.000000
-718.63000488,101.23999786,27.70000076,13.000000
-714.71002197,96.44000244,21.54999924,13.000000
-717.15002441,100.01999664,53.63000107,13.000000
-713.92999268,92.88999939,54.18999863,13.000000
-714.90997314,96.76999664,54.91999817,13.000000
-712.73999023,95.23000336,58.70999908,13.000000
-712.72998047,95.04000092,40.97000122,13.000000
-715.08001709,98.30999756,36.84999847,13.000000
-712.88000488,95.19999695,31.70000076,13.000000
-717.72998047,85.95999908,49.68000031,13.000000
-714.76000977,96.58000183,47.24000168,13.000000
-722.23999023,115.30000305,45.20999908,13.000000
-714.30999756,109.51999664,49.81999969,13.000000
-716.40997314,104.91999817,41.08000183,13.000000
-717.59002686,113.02999878,24.45000076,13.000000
-716.15002441,105.43000031,23.56999969,13.000000
-716.65997314,112.62000275,45.38999939,13.000000
-719.40997314,114.09999847,37.45000076,13.000000
-732.41998291,109.90000153,26.12000084,13.000000
-714.70001221,108.54000092,28.78000069,13.000000
-722.52001953,114.70999908,56.29000092,13.000000
-724.16998291,114.41000366,65.15000153,13.000000
-722.70001221,114.58999634,71.59999847,13.000000
-721.72998047,115.76000214,49.65000153,13.000000
-722.65002441,115.19999695,41.50000000,13.000000
-714.46002197,110.79000092,32.83000183,13.000000
-714.23999023,110.76000214,70.08000183,13.000000
-714.14001465,111.19999695,63.75999832,13.000000
-722.17999268,115.61000061,34.15000153,13.000000
-716.84002686,104.33000183,44.36000061,13.000000
-720.65997314,114.75000000,65.44000244,13.000000
-717.15002441,104.02999878,68.23000336,13.000000
-722.00000000,114.91999817,60.18000031,13.000000
-723.57000732,115.23999786,30.46999931,13.000000
-714.09997559,109.62000275,75.62000275,13.000000
-715.16998291,107.72000122,72.84999847,13.000000
-717.05999756,112.77999878,76.30000305,13.000000
-723.03997803,115.23000336,52.88999939,13.000000
-715.72998047,106.26000214,33.25000000,13.000000
-714.09997559,109.84999847,22.52000046,13.000000
-718.71997070,113.68000031,28.13999939,13.000000
-715.29998779,112.75000000,60.59000015,13.000000
-715.20001221,112.80000305,37.18000031,13.000000
-718.40997314,113.45999908,58.95999908,13.000000
-717.29998779,112.87999725,67.93000031,13.000000
-716.98999023,112.66999817,71.91999817,13.000000
-720.11999512,114.80999756,69.20999908,13.000000
-713.92999268,110.59999847,44.61999893,13.000000
-713.79998779,112.02999878,40.06999969,13.000000
-717.96002197,113.11000061,21.14999962,13.000000
-714.38000488,109.38999939,37.95999908,13.000000
-715.46997070,112.98000336,28.52000046,13.000000
-722.36999512,115.75000000,21.70999908,13.000000
-716.82000732,104.33999634,28.92000008,13.000000
-717.15002441,112.93000031,64.16000366,13.000000
-718.69000244,113.68000031,54.20000076,13.000000
-715.19000244,106.98000336,52.97999954,13.000000
-717.14001465,104.01999664,56.95999908,13.000000
-717.51000977,112.81999969,40.02000046,13.000000
-718.69000244,113.36000061,47.49000168,13.000000
-714.86999512,107.76000214,60.27999878,13.000000
-714.17999268,110.05999756,56.25999832,13.000000
-716.07000732,105.66000366,70.80000305,13.000000
-714.14001465,109.61000061,66.62000275,13.000000
-717.11999512,103.91999817,63.09999847,13.000000
-716.53002930,104.80999756,59.90999985,13.000000
-714.71997070,108.44000244,46.61000061,13.000000
-715.89001465,105.87000275,50.22000122,13.000000
-716.91998291,104.26999664,38.11000061,13.000000
-717.07000732,104.02999878,47.70000076,13.000000
-717.28002930,112.87000275,33.77999878,13.000000
-715.54998779,106.31999969,64.86000061,13.000000
-719.15997314,114.01000214,31.45999908,13.000000
-721.17999268,113.51999664,74.44999695,13.000000
-731.35998535,109.23000336,64.16999817,13.000000
-715.08001709,112.12999725,48.02000046,13.000000
-714.26000977,109.69999695,25.70999908,13.000000
-731.14001465,239.32000732,25.31999969,15.000000
-732.44000244,239.07000732,22.25000000,15.000000
-731.70001221,238.33000183,28.87999916,15.000000
-731.25000000,233.27999878,31.14999962,15.000000
-731.17999268,226.25000000,28.09000015,15.000000
-733.55999756,225.47999573,25.68000031,15.000000
-736.51000977,226.05999756,27.75000000,15.000000
-737.04998779,237.32000732,21.79000092,15.000000
-735.50000000,237.61999512,28.92000008,15.000000
-736.28002930,227.02999878,31.38999939,15.000000
-734.53002930,234.97999573,31.12000084,15.000000
-740.90002441,232.07000732,28.32999992,15.000000
-739.63000488,232.41000366,31.39999962,15.000000
-737.27001953,229.72999573,30.47999954,15.000000
-731.77001953,230.32000732,30.82999992,15.000000
-721.03997803,237.69000244,21.04999924,15.000000
-704.45001221,235.14999390,21.76000023,15.000000
-717.72998047,239.88000488,24.29999924,15.000000
-728.36999512,239.38999939,28.39999962,15.000000
-714.44000244,240.27000427,29.88999939,15.000000
-708.67999268,237.89999390,27.80999947,15.000000
-728.29998779,239.49000549,22.29999924,15.000000
-719.07000732,239.08000183,27.48999977,15.000000
-711.38000488,240.30999756,22.13999939,15.000000
-715.34997559,240.24000549,26.57999992,15.000000
-704.65002441,238.16999817,30.65999985,15.000000
-715.36999512,229.05999756,29.01000023,15.000000
-729.28997803,227.77999878,32.22999954,15.000000
-705.26000977,229.24000549,24.51000023,15.000000
-725.09002686,227.08999634,25.85000038,15.000000
-726.19000244,231.08000183,30.39999962,15.000000
-725.96997070,238.22000122,25.45000076,15.000000
-717.97998047,227.33999634,21.67000008,15.000000
-719.52001953,228.44000244,27.04999924,15.000000
-719.90997314,236.69999695,30.86000061,15.000000
-729.67999268,235.83999634,29.13999939,15.000000
-726.89001465,236.16000366,31.28000069,15.000000
-725.90002441,237.52000427,28.50000000,15.000000
-704.25000000,233.08000183,28.52000046,15.000000
-711.96002197,237.13999939,30.59000015,15.000000
-714.03997803,234.86999512,30.46999931,15.000000
-717.44000244,234.63000488,31.48999977,15.000000
-722.34002686,234.85000610,30.59000015,15.000000
-722.92999268,237.92999268,28.87999916,15.000000
-708.90997314,235.86000061,30.64999962,15.000000
-715.90002441,231.77999878,30.40999985,15.000000
-722.48999023,228.78999329,30.27000046,15.000000
-719.28002930,231.30000305,30.40999985,15.000000
-728.39001465,228.25999451,28.37999916,15.000000
-707.83001709,229.03999329,30.04999924,15.000000
-705.79998779,229.32000732,27.71999931,15.000000
-707.82000732,232.30000305,30.43000031,15.000000
-711.27001953,228.89999390,30.22999954,15.000000
-710.71997070,229.13999939,27.26000023,15.000000
-711.89001465,231.89999390,30.40999985,15.000000
-721.52001953,228.53999329,22.17000008,15.000000
-708.15997314,227.92999268,21.30999947,15.000000
-704.27001953,229.30000305,20.92000008,15.000000
-704.59002686,237.58000183,24.18000031,15.000000
-729.15002441,226.47000122,24.97999954,15.000000
-714.59002686,227.67999268,25.72999954,15.000000
-725.92999268,237.27000427,21.54000092,15.000000
-726.98999023,226.85000610,21.79000092,15.000000
-722.65997314,237.27000427,23.54999924,15.000000
-732.25000000,209.00000000,21.29000092,194.000000
-731.61999512,209.27000427,25.70000076,194.000000
-731.61999512,204.75999451,33.02000046,194.000000
-731.92999268,197.71000671,32.52000046,194.000000
-734.59002686,207.38000488,28.36000061,194.000000
-737.91998291,206.94999695,27.62999916,194.000000
-740.21002197,206.30999756,25.51000023,194.000000
-740.28997803,200.97000122,30.32999992,194.000000
-735.84002686,198.03999329,30.34000015,194.000000
-736.36999512,203.42999268,31.54000092,194.000000
-732.39001465,200.86999512,31.07999992,194.000000
-740.15002441,197.28999329,31.36000061,194.000000
-732.85998535,206.13000488,30.62000084,194.000000
-740.70001221,204.22000122,28.18000031,194.000000
-742.67999268,204.13999939,25.88999939,194.000000
-739.14001465,206.52000427,20.88999939,194.000000
-749.52001953,201.44000244,20.85000038,194.000000
-732.03002930,196.32000732,23.70999908,194.000000
-705.73999023,200.47000122,27.26000023,194.000000
-720.82000732,197.17999268,21.55999947,194.000000
-727.61999512,204.03999329,31.40999985,194.000000
-713.75000000,206.72999573,30.73999977,194.000000
-725.59002686,207.35000610,25.76000023,194.000000
-715.76000977,209.83000183,28.38999939,194.000000
-711.46002197,198.61000061,29.46999931,194.000000
-723.14001465,207.55000305,23.19000053,194.000000
-711.90997314,197.03999329,25.71999931,194.000000
-714.85998535,198.17999268,29.20999908,194.000000
-715.75000000,210.10000610,20.76000023,194.000000
-720.96002197,207.21000671,29.72999954,194.000000
-722.82000732,199.36000061,31.22999954,194.000000
-717.19000244,203.82000732,32.47000122,194.000000
-718.10998535,200.44000244,32.91999817,194.000000
-714.53997803,209.94999695,31.40999985,194.000000
-706.86999512,202.85000610,31.63999939,194.000000
-710.53997803,210.24000549,27.32999992,194.000000
-706.78997803,208.07000732,33.00999832,194.000000
-711.22998047,202.80999756,33.06999969,194.000000
-719.84997559,209.41000366,24.15999985,194.000000
-728.94000244,196.21000671,22.94000053,194.000000
-716.32000732,196.78999329,21.57999992,194.000000
-717.48999023,196.67999268,26.20999908,194.000000
-711.44000244,207.64999390,32.97000122,194.000000
-705.84002686,200.94999695,21.55999947,194.000000
-708.71002197,198.75000000,27.45999908,194.000000
-719.59002686,198.11000061,31.28000069,194.000000
-709.32000732,207.80000305,24.59000015,194.000000
-723.80999756,198.08999634,24.69000053,194.000000
-727.61999512,207.77000427,23.06999969,194.000000
-722.96997070,205.24000549,31.12999916,194.000000
-715.04998779,199.08999634,32.63000107,194.000000
-711.95001221,199.69000244,33.31000137,194.000000
-708.86999512,198.69999695,21.62000084,194.000000
-706.00000000,204.36999512,20.68000031,194.000000
-714.11999512,204.33999634,33.43000031,194.000000
-727.59002686,206.97000122,27.96999931,194.000000
-727.03002930,198.50999451,30.54999924,194.000000
-723.34002686,202.25999451,32.65000153,194.000000
-720.03997803,198.36999512,28.07999992,194.000000
-713.45001221,210.13000488,24.12999916,194.000000
-708.92999268,198.71000671,31.20000076,194.000000
-728.40002441,197.91000366,27.59000015,194.000000
-731.71002197,197.72000122,28.72999954,194.000000
-708.97998047,207.75999451,21.45999908,194.000000
-709.57000732,207.47000122,29.67000008,194.000000
-717.94000244,206.35000610,30.13999939,194.000000
-719.23999023,209.55000305,28.31999969,194.000000
-797.32000732,115.77999878,32.13000107,14.000000
-796.46997070,111.77999878,29.05999947,14.000000
-802.90997314,121.59999847,32.84000015,14.000000
-797.61999512,121.55000305,32.74000168,14.000000
-797.77001953,123.09999847,21.87999916,14.000000
-797.47998047,114.76999664,26.70999908,14.000000
-797.25000000,118.87000275,23.01000023,14.000000
-797.38000488,114.81999969,22.97999954,14.000000
-808.53002930,123.47000122,29.43000031,14.000000
-800.82000732,123.26000214,31.05999947,14.000000
-797.39001465,119.16000366,28.22999954,14.000000
-797.57000732,122.36000061,25.60000038,14.000000
-790.58001709,120.33000183,21.15999985,14.000000
-797.14001465,110.58000183,22.27000046,14.000000
-799.78002930,118.83000183,32.81000137,14.000000
-801.01000977,135.60000610,25.80999947,14.000000
-822.71997070,134.49000549,28.95999908,14.000000
-805.27001953,123.93000031,30.06999969,14.000000
-806.89001465,130.94999695,29.57999992,14.000000
-797.78997803,130.44999695,31.06999969,14.000000
-811.29998779,129.97999573,29.48999977,14.000000
-791.07000732,129.35000610,21.47999954,14.000000
-798.03002930,126.36000061,32.77000046,14.000000
-815.07000732,133.61999512,32.54999924,14.000000
-805.59997559,135.07000732,32.65000153,14.000000
-825.21997070,134.35000610,21.18000031,14.000000
-821.46002197,134.50000000,21.44000053,14.000000
-798.14001465,132.52999878,23.67000008,14.000000
-797.89001465,125.13999939,27.55999947,14.000000
-813.11999512,134.78999329,26.87999916,14.000000
-819.58001709,134.46000671,32.34000015,14.000000
-807.40002441,126.40000153,29.37999916,14.000000
-797.90997314,128.21000671,27.90999985,14.000000
-809.21002197,134.97000122,32.68000031,14.000000
-812.76000977,135.05000305,31.19000053,14.000000
-803.00000000,132.52999878,31.02000046,14.000000
-799.32000732,135.02000427,32.61999893,14.000000
-792.00000000,125.62000275,21.82999992,14.000000
-819.98999023,134.57000732,24.32999992,14.000000
-815.14001465,128.55999756,29.40999985,14.000000
-810.88000488,135.00999451,21.43000031,14.000000
-803.21997070,128.49000549,29.71999931,14.000000
-797.78002930,127.08999634,24.43000031,14.000000
-790.61999512,127.97000122,24.37000084,14.000000
-732.42999268,178.86000061,24.07999992,195.000000
-732.90002441,176.00999451,31.62000084,195.000000
-732.45001221,163.89999390,23.68000031,195.000000
-732.59002686,167.66000366,31.44000053,195.000000
-732.35998535,166.05999756,27.94000053,195.000000
-733.05999756,170.91000366,31.53000069,195.000000
-740.08001709,174.38999939,31.47999954,195.000000
-736.05999756,167.30999756,31.12000084,195.000000
-739.85998535,171.11999512,30.35000038,195.000000
-743.84002686,171.61999512,31.29999924,195.000000
-736.71997070,172.75000000,30.54000092,195.000000
-739.64001465,167.69000244,30.65999985,195.000000
-736.80999756,177.10000610,29.82999992,195.000000
-732.46997070,179.07000732,27.85000038,195.000000
-741.09002686,176.60000610,28.57999992,195.000000
-734.78997803,178.16000366,21.43000031,195.000000
-741.52001953,178.50000000,22.63999939,195.000000
-717.76000977,168.24000549,31.68000031,195.000000
-719.66998291,166.55000305,27.96999931,195.000000
-715.89001465,167.89999390,27.80999947,195.000000
-714.54998779,168.72000122,30.39999962,195.000000
-723.26000977,178.00000000,30.40999985,195.000000
-714.90002441,178.91999817,31.95999908,195.000000
-726.97998047,171.27999878,31.37000084,195.000000
-722.11999512,163.33999634,21.89999962,195.000000
-708.46002197,176.22999573,24.32999992,195.000000
-728.29998779,166.05000305,27.40999985,195.000000
-713.47998047,179.80999756,24.09000015,195.000000
-717.36999512,175.77000427,32.50000000,195.000000
-723.47998047,166.80999756,30.14999962,195.000000
-718.97998047,171.44000244,30.78000069,195.000000
-719.10998535,179.94000244,29.67000008,195.000000
-708.79998779,180.24000549,24.39999962,195.000000
-721.51000977,179.52999878,20.77000046,195.000000
-717.55999756,178.91000366,22.54999924,195.000000
-719.03002930,179.82000732,25.42000008,195.000000
-729.34002686,167.44000244,29.90999985,195.000000
-716.72998047,166.11000061,21.45999908,195.000000
-728.89001465,179.16000366,28.51000023,195.000000
-716.22998047,179.91000366,27.20000076,195.000000
-728.34997559,176.17999268,31.57999992,195.000000
-709.54998779,173.50000000,27.92000008,195.000000
-714.08001709,175.07000732,32.97000122,195.000000
-710.46002197,179.52000427,30.37999916,195.000000
-708.40997314,176.49000549,27.63999939,195.000000
-712.57000732,168.86000061,25.70000076,195.000000
-721.26000977,168.14999390,32.20000076,195.000000
-721.80999756,174.41999817,32.68000031,195.000000
-725.19000244,173.67999268,32.45999908,195.000000
-723.34997559,171.08000183,30.75000000,195.000000
-716.92999268,172.74000549,32.81000137,195.000000
-713.90997314,170.52000427,32.99000168,195.000000
-726.03997803,167.89999390,31.28000069,195.000000
-708.89001465,173.41999817,31.76000023,195.000000
-711.83001709,173.57000732,30.48999977,195.000000
-719.50000000,174.78999329,30.37000084,195.000000
-709.41998291,171.86999512,24.87000084,195.000000
-710.25000000,169.00000000,23.25000000,195.000000
-712.78997803,167.66000366,22.37999916,195.000000
-725.80999756,179.52000427,21.37000084,195.000000
-718.75000000,165.67999268,24.03000069,195.000000
-721.75000000,164.67999268,25.13999939,195.000000
-716.10998535,167.16999817,24.73999977,195.000000
-791.28997803,239.97000122,30.52000046,16.000000
-793.98999023,237.89999390,30.71999931,16.000000
-795.47998047,229.69999695,29.90999985,16.000000
-804.89001465,228.50999451,27.68000031,16.000000
-801.02001953,226.22000122,23.19000053,16.000000
-782.67999268,226.00000000,27.76000023,16.000000
-786.46002197,229.80000305,29.78000069,16.000000
-793.09002686,209.17999268,28.84000015,16.000000
-795.84997559,209.07000732,27.63999939,16.000000
-801.80999756,229.44000244,29.37999916,16.000000
-798.00000000,230.96000671,31.62000084,16.000000
-787.30999756,221.78999329,21.39999962,16.000000
-784.00000000,219.94000244,21.77000046,16.000000
-806.26000977,196.94999695,29.54999924,16.000000
-802.98999023,197.44000244,30.45999908,16.000000
-800.28997803,196.83000183,29.12000084,16.000000
-768.10998535,192.41999817,27.63999939,16.000000
-794.84997559,195.52999878,26.13999939,16.000000
-794.60998535,197.13000488,29.11000061,16.000000
-771.95001221,194.80999756,30.23999977,16.000000
-779.78997803,195.53999329,31.01000023,16.000000
-799.13000488,195.14999390,25.51000023,16.000000
-764.70001221,193.49000549,28.00000000,16.000000
-760.96997070,194.46000671,25.38999939,16.000000
-759.54998779,195.74000549,28.42000008,16.000000
-776.28997803,238.72000122,32.04000092,16.000000
-781.13000488,239.36999512,32.58000183,16.000000
-786.13000488,242.16999817,31.17000008,16.000000
-763.67999268,237.63000488,24.05999947,16.000000
-776.80999756,242.91000366,26.73999977,16.000000
-772.65002441,237.10000610,26.29000092,16.000000
-769.71997070,237.22999573,21.70999908,16.000000
-768.02001953,237.07000732,24.97999954,16.000000
-775.53002930,239.30999756,24.87999916,16.000000
-760.47998047,237.99000549,22.44000053,16.000000
-777.42999268,242.13000488,31.35000038,16.000000
-788.04998779,239.61999512,32.68000031,16.000000
-770.14001465,237.28999329,28.82999992,16.000000
-772.97998047,236.89999390,30.55999947,16.000000
-773.34002686,237.19000244,22.20000076,16.000000
-775.77001953,241.33000183,22.04000092,16.000000
-766.61999512,237.57000732,28.45999908,16.000000
-775.63000488,240.13999939,29.02000046,16.000000
-783.59997559,236.61000061,33.40000153,16.000000
-761.10998535,237.82000732,26.96999931,16.000000
-764.65002441,237.52999878,30.93000031,16.000000
-780.41998291,242.83999634,30.57999992,16.000000
-760.51000977,237.74000549,30.88999939,16.000000
-780.41998291,236.16000366,32.56000137,16.000000
-790.65997314,233.52999878,32.52999878,16.000000
-767.71997070,227.39999390,33.25000000,16.000000
-763.29998779,227.25000000,32.31999969,16.000000
-779.50000000,232.03999329,32.09999847,16.000000
-780.30999756,209.00000000,31.05999947,16.000000
-759.54998779,235.17999268,29.09000015,16.000000
-777.23999023,226.75000000,31.43000031,16.000000
-769.97998047,232.24000549,33.43999863,16.000000
-778.83001709,216.75999451,23.48999977,16.000000
-774.97998047,208.67999268,28.22999954,16.000000
-787.77001953,236.25999451,32.81000137,16.000000
-788.19000244,210.38000488,29.69000053,16.000000
-760.47998047,228.61000061,24.56999969,16.000000
-773.46002197,227.55999756,32.02000046,16.000000
-800.47998047,209.86000061,25.37000084,16.000000
-771.70001221,210.08000183,25.87999916,16.000000
-791.29998779,229.55999756,28.76000023,16.000000
-759.47998047,231.33000183,30.64999962,16.000000
-778.84002686,213.33999634,24.88999939,16.000000
-785.28002930,233.08999634,33.09999847,16.000000
-775.66998291,233.49000549,32.15000153,16.000000
-782.67999268,213.96000671,23.82999992,16.000000
-759.40997314,234.36999512,25.40999985,16.000000
-760.17999268,229.88000488,27.75000000,16.000000
-765.58001709,232.02000427,32.36999893,16.000000
-766.82000732,235.00999451,32.02000046,16.000000
-770.46002197,228.83000183,32.00000000,16.000000
-781.80999756,233.71000671,33.65000153,16.000000
-775.90997314,229.61000061,32.36000061,16.000000
-759.50000000,232.92999268,21.20999908,16.000000
-792.78002930,235.88999939,32.75000000,16.000000
-803.57000732,209.58999634,25.92000008,16.000000
-785.33001709,209.47000122,28.75000000,16.000000
-775.84002686,207.55000305,31.22999954,16.000000
-763.16998291,234.39999390,32.20000076,16.000000
-800.15997314,208.33999634,28.40999985,16.000000
-772.76000977,212.63000488,23.76000023,16.000000
-779.97998047,210.60000610,27.69000053,16.000000
-762.34997559,230.50999451,31.48999977,16.000000
-761.61999512,207.41999817,23.47999954,16.000000
-768.17999268,207.99000549,26.37000084,16.000000
-773.04998779,203.33000183,31.45000076,16.000000
-768.97998047,203.50000000,31.94000053,16.000000
-804.30999756,204.55999756,32.15999985,16.000000
-757.29998779,204.94000244,26.14999962,16.000000
-756.84002686,197.08000183,28.30999947,16.000000
-757.07000732,199.52000427,21.20999908,16.000000
-760.25000000,196.42999268,32.18999863,16.000000
-809.08001709,202.80000305,30.35000038,16.000000
-802.75000000,206.58000183,29.60000038,16.000000
-766.34002686,205.52000427,29.82999992,16.000000
-761.65002441,208.08000183,28.95999908,16.000000
-790.65002441,205.24000549,31.51000023,16.000000
-782.30999756,200.89999390,33.24000168,16.000000
-796.35998535,206.52999878,31.53000069,16.000000
-790.42999268,198.80000305,31.04999924,16.000000
-757.03997803,200.72999573,24.62999916,16.000000
-780.83001709,203.92999268,34.27000046,16.000000
-787.39001465,202.21000671,31.17000008,16.000000
-774.98999023,198.72999573,32.15000153,16.000000
-765.33001709,200.24000549,31.79999924,16.000000
-758.19000244,201.77999878,31.61000061,16.000000
-757.59997559,205.88999939,22.53000069,16.000000
-778.71002197,202.02999878,32.09000015,16.000000
-772.03997803,206.00999451,30.19000053,16.000000
-757.05999756,201.60000610,28.10000038,16.000000
-760.23999023,205.92999268,26.34000015,16.000000
-799.92999268,205.16000366,31.32999992,16.000000
-787.38000488,207.30999756,30.77000046,16.000000
-777.95001221,204.97000122,31.96999931,16.000000
-786.69000244,198.19999695,30.77000046,16.000000
-797.04998779,200.72000122,31.35000038,16.000000
-800.48999023,200.88000488,31.22999954,16.000000
-793.83001709,201.08000183,31.43000031,16.000000
-778.03002930,199.02000427,32.22000122,16.000000
-762.38000488,199.00000000,31.27000046,16.000000
-771.61999512,199.58999634,31.25000000,16.000000
-768.01000977,197.33999634,31.27000046,16.000000
-765.47998047,196.41000366,33.43000031,16.000000
-762.30999756,204.69999695,31.37000084,16.000000
-805.50000000,207.16999817,28.28000069,16.000000
-782.83001709,206.33999634,32.29999924,16.000000
-784.10998535,196.30999756,29.77000046,16.000000
-757.59002686,197.44999695,24.20000076,16.000000
-774.91998291,215.47000122,23.96999931,16.000000
-777.89001465,220.50000000,22.61000061,16.000000
-793.08001709,231.52000427,31.80999947,16.000000
-784.69000244,211.10000610,26.30999947,16.000000
-786.22998047,224.41000366,25.63999939,16.000000
-777.41998291,223.42999268,26.52000046,16.000000
-782.58001709,230.86999512,31.20999908,16.000000
-776.04998779,212.00999451,25.88999939,16.000000
-758.57000732,177.83000183,21.43000031,18.000000
-798.65997314,175.83999634,23.78000069,18.000000
-793.77001953,176.10000610,24.11000061,18.000000
-765.09997559,164.67999268,28.87999916,18.000000
-804.98999023,160.64999390,30.28000069,18.000000
-781.40997314,161.64999390,22.26000023,18.000000
-792.50000000,169.55999756,31.04999924,18.000000
-761.80999756,166.99000549,33.02000046,18.000000
-763.45001221,174.05000305,31.87000084,18.000000
-755.30999756,169.46000671,28.09000015,18.000000
-754.09002686,171.97000122,24.71999931,18.000000
-754.23999023,175.49000549,24.64999962,18.000000
-774.17999268,167.96000671,31.19000053,18.000000
-759.15997314,166.16999817,31.25000000,18.000000
-755.47998047,168.07000732,21.15999985,18.000000
-768.10998535,166.30999756,32.20000076,18.000000
-799.76000977,165.13000488,31.25000000,18.000000
-797.40002441,167.39999390,31.82999992,18.000000
-774.46997070,170.22999573,34.22000122,18.000000
-793.73999023,174.67999268,30.72999954,18.000000
-776.33001709,165.57000732,32.00999832,18.000000
-780.46997070,169.16000366,32.90999985,18.000000
-764.15002441,167.94000244,31.20000076,18.000000
-787.32000732,170.91000366,31.72999954,18.000000
-802.53002930,164.13999939,32.11000061,18.000000
-806.01000977,173.52999878,29.15999985,18.000000
-797.97998047,172.88000488,31.21999931,18.000000
-790.60998535,164.77000427,32.04999924,18.000000
-802.09002686,172.69999695,32.13000107,18.000000
-776.17999268,172.19999695,31.37000084,18.000000
-770.48999023,172.50000000,31.29000092,18.000000
-767.64001465,170.88999939,31.22999954,18.000000
-783.84997559,174.25999451,31.38999939,18.000000
-789.86999512,173.39999390,31.93000031,18.000000
-779.96002197,172.38999939,31.64999962,18.000000
-786.95001221,167.28999329,31.62000084,18.000000
-761.10998535,169.47999573,31.22999954,18.000000
-759.17999268,172.22000122,31.27000046,18.000000
-771.70001221,166.11999512,31.37000084,18.000000
-780.36999512,165.69000244,32.93999863,18.000000
-783.83001709,168.19999695,32.65999985,18.000000
-784.23999023,163.32000732,29.71999931,18.000000
-783.08001709,162.85000610,24.72999954,18.000000
-757.65997314,166.14999390,25.54999924,18.000000
-760.16998291,164.64999390,24.06999969,18.000000
-776.13000488,176.36999512,31.11000061,18.000000
-805.59997559,175.11999512,25.76000023,18.000000
-803.13000488,174.41999817,29.17000008,18.000000
-767.78997803,174.53999329,32.18000031,18.000000
-756.35998535,175.13999939,32.24000168,18.000000
-759.71997070,165.67999268,28.29000092,18.000000
-773.54998779,163.69000244,27.22999954,18.000000
-787.38000488,162.92999268,29.23999977,18.000000
-785.55999756,160.88999939,22.93000031,18.000000
-769.40002441,162.16999817,24.26000023,18.000000
-795.16998291,162.89999390,29.37999916,18.000000
-779.71997070,163.46000671,30.34000015,18.000000
-776.48999023,163.35000610,28.54000092,18.000000
-788.66998291,159.75999451,21.34000015,18.000000
-788.48999023,161.11999512,25.19000053,18.000000
-802.40002441,160.02999878,27.76000023,18.000000
-796.86999512,164.16999817,32.18000031,18.000000
-802.60998535,168.33000183,31.07999992,18.000000
-799.58001709,169.55000305,31.04000092,18.000000
-754.25000000,174.96000671,29.51000023,18.000000
-755.36999512,177.83999634,29.95999908,18.000000
-755.57000732,178.19999695,25.29000092,18.000000
-792.04998779,176.03999329,28.45000076,18.000000
-770.28997803,177.27999878,22.34000015,18.000000
-770.13000488,177.36000061,27.53000069,18.000000
-787.22998047,176.41000366,21.38999939,18.000000
-771.65002441,176.86999512,30.73999977,18.000000
-759.42999268,175.80000305,31.12999916,18.000000
-781.53997803,176.66000366,31.36000061,18.000000
-798.58001709,175.72000122,30.07999992,18.000000
-795.70001221,175.97000122,28.73999977,18.000000
-777.72998047,176.96000671,23.60000038,18.000000
-782.21002197,176.77000427,23.37999916,18.000000
-788.47998047,176.25999451,29.14999962,18.000000
-775.83001709,176.97999573,21.15999985,18.000000
-764.75000000,177.19000244,30.53000069,18.000000
-770.64001465,303.51998901,26.27000046,19.000000
-779.29998779,296.76000977,30.71999931,19.000000
-738.79998779,301.79000854,29.89999962,19.000000
-778.46002197,299.89001465,30.87999916,19.000000
-799.61999512,300.57998657,33.15000153,19.000000
-763.04998779,301.11999512,29.92000008,19.000000
-762.40002441,304.85000610,31.12999916,19.000000
-745.15002441,294.70001221,31.18000031,19.000000
-748.54998779,296.70999146,31.32999992,19.000000
-739.69000244,302.83999634,22.00000000,19.000000
-729.73999023,299.50000000,30.71999931,19.000000
-741.91998291,296.91000366,30.30999947,19.000000
-742.36999512,299.82998657,31.04000092,19.000000
-732.09997559,293.60000610,30.23999977,19.000000
-740.63000488,303.10998535,25.48999977,19.000000
-739.77001953,292.82998657,30.10000038,19.000000
-734.47998047,301.26998901,28.26000023,19.000000
-736.52001953,303.35998535,27.04000092,19.000000
-759.63000488,299.75000000,30.20999908,19.000000
-771.83001709,299.44000244,31.38999939,19.000000
